# .PCD v0.7 - Point Cloud Data file format
VERSION 0.7
FIELDS x y z
SIZE 4 4 4
TYPE F F F
COUNT 1 1 1
WIDTH 3218
HEIGHT 1
VIEWPOINT 0 0 0 1 0 0 0
POINTS 3218
DATA ascii
1021.5385 -303.26923 1660
145 11 65300
146 11 65300
147 11 65300
148 11 65300
149 11 65300
150 11 65300
151 11 65300
152 11 65300
153 11 65300
154 11 65300
453.60577 -114.91346 629
842.5769 -210.64423 1153
157 11 65300
158 11 65300
159 11 65300
0 12 65300
1 12 65300
-780.75 -180.17308 1041
3 12 65300
-719.0769 -170.30769 984
5 12 65300
-716.51923 -174.28847 1007
7 12 65300
-860.53845 -215.13461 1243
9 12 65300
-1049.3269 -269.82693 1559
11 12 65300
-444.61539 -117.69231 680
13 12 65300
-505.78845 -137.94231 797
15 12 65300
16 12 65300
17 12 65300
18 12 65300
19 12 65300
-589.61536 -176.88461 1022
-602.48077 -183.80769 1062
-670.34613 -208.03847 1202
23 12 65300
-636.46155 -204.57692 1182
25 12 65300
-657.86536 -219.28847 1267
27 12 65300
28 12 65300
29 12 65300
30 12 65300
31 12 65300
32 12 65300
33 12 65300
34 12 65300
35 12 65300
36 12 65300
37 12 65300
38 12 65300
39 12 65300
40 12 65300
41 12 65300
42 12 65300
43 12 65300
44 12 65300
45 12 65300
46 12 65300
47 12 65300
48 12 65300
49 12 65300
50 12 65300
51 12 65300
52 12 65300
53 12 65300
-281 -194.53847 1124
-174.51923 -125.65385 726
-290.53845 -217.90384 1259
57 12 65300
-138.13461 -113.01923 653
59 12 65300
60 12 65300
61 12 65300
62 12 65300
63 12 65300
64 12 65500
65 12 65300
-138.65384 -178.26923 1030
-180.5 -249.92308 1444
68 12 65500
69 12 65300
-46.826923 -84.28846 487
71 12 65300
72 12 65300
73 12 65300
-89.884613 -269.65384 1558
75 12 65300
-103.30769 -464.88461 2686
77 12 65300
78 12 65300
-8.3269234 -149.88461 866
80 12 65530
81 12 65300
82 12 65300
83 12 65300
84 12 65300
85 12 65300
86 12 65300
87 12 65300
88 12 65300
89 12 65300
90 12 65300
91 12 65300
60.923077 -91.384613 528
93 12 65300
94 12 65300
95 12 65300
96 12 65300
97 12 65300
98 12 65300
99 12 65300
100 12 65300
101 12 65300
102 12 65300
103 12 65300
104 12 65300
105 12 65300
106 12 65300
107 12 65300
108 12 65300
311.19232 -193.15384 1116
110 12 65300
111 12 65300
112 12 65300
113 12 65300
114 12 65300
115 12 65300
116 12 65300
117 12 65300
118 12 65300
119 12 65300
120 12 65300
121 12 65300
122 12 65300
123 12 65300
124 12 65300
125 12 65300
126 12 65300
127 12 65300
128 12 65300
129 12 65300
130 12 65300
131 12 65300
132 12 65300
133 12 65300
134 12 65300
135 12 65300
136 12 65300
137 12 65300
138 12 65300
139 12 65300
140 12 65300
141 12 65300
142 12 65300
143 12 65300
144 12 65300
145 12 65300
146 12 65300
147 12 65300
148 12 65300
149 12 65300
150 12 65300
151 12 65300
152 12 65300
153 12 65300
154 12 65300
155 12 65300
156 12 65300
157 12 65300
834.75 -192.63461 1113
159 12 65300
0 13 65300
-758.85577 -163.29808 999
2 13 65300
-1209.0481 -266.93268 1633
-529.0769 -118.34615 724
5 13 65300
-522.98077 -120.14423 735
-631.73077 -147.11539 900
-695.0769 -164.11539 1004
9 13 65300
-203.26923 -49.365383 302
-445.18268 -109.68269 671
-850.65387 -212.66347 1301
13 13 65300
-651.11536 -167.71153 1026
15 13 65300
-808 -214.625 1313
17 13 65300
-892.44232 -244.70192 1497
-782.44232 -218.05769 1334
-929.4231 -263.33655 1611
-654.6731 -188.63461 1154
22 13 65300
23 13 65300
-723.69232 -219.69231 1344
-1073.5577 -331.82693 2030
-864 -272 1664
27 13 65300
28 13 65300
29 13 65300
30 13 65300
31 13 65300
32 13 65300
33 13 65300
34 13 65300
-444.80768 -168.03847 1028
36 13 65300
37 13 65300
38 13 65300
39 13 65300
40 13 65300
41 13 65300
42 13 65300
43 13 65300
44 13 65300
45 13 65300
-466.19232 -233.09616 1426
-328.41345 -169.18269 1035
48 13 65300
49 13 65300
50 13 65300
51 13 65300
52 13 65300
-566.22113 -356.50961 2181
-416.75 -272.49039 1667
55 13 65300
-200.53847 -142.04808 869
-241.5 -178.5 1092
-314.34616 -242.90384 1486
-284.10577 -229.99039 1407
-248.07692 -210.86539 1290
61 13 65300
62 13 65300
63 13 65300
64 13 65300
65 13 65300
66 13 65300
67 13 65300
68 13 65300
-102.91346 -159.04808 973
70 13 65300
71 13 65300
-70.769234 -150.38461 920
73 13 65300
-46.096153 -130.60577 799
-51.442307 -174.90384 1070
76 13 65300
77 13 65300
78 13 65300
79 13 65300
0 -136.16347 833
81 13 65300
18.326923 -155.77884 953
83 13 65300
84 13 65300
85 13 65300
86 13 65300
87 13 65300
88 13 65300
89 13 65300
164.03847 -278.86539 1706
91 13 65300
92 13 65300
93 13 65300
189.67308 -230.31731 1409
95 13 65300
311.23077 -330.68268 2023
97 13 65300
98 13 65300
99 13 65300
100 13 65300
101 13 65300
102 13 65300
103 13 65300
57 -40.375 247
105 13 65300
252.25 -164.93269 1009
486.77884 -306.49039 1875
108 13 65300
476.54807 -279.35577 1709
110 13 65300
111 13 65300
112 13 65300
113 13 65300
318.42307 -159.21153 974
115 13 65300
116 13 65300
117 13 65300
118 13 65300
119 13 65300
120 13 65300
121 13 65300
122 13 65300
123 13 65300
124 13 65300
125 13 65300
126 13 65300
899.77887 -325.45193 1991
128 13 65300
129 13 65300
130 13 65300
131 13 65300
132 13 65300
1210.8462 -388.38461 2376
134 13 65300
637.25964 -196.97116 1205
1047.3077 -317.93268 1945
137 13 65300
912.94232 -267.58655 1637
139 13 65300
140 13 65300
141 13 65300
142 13 65300
143 13 65300
144 13 65300
145 13 65300
146 13 65300
147 13 65300
148 13 65300
602.4231 -148.42308 908
150 13 65300
151 13 65300
152 13 65300
153 13 65300
154 13 65300
155 13 65300
840.38464 -187.98077 1150
157 13 65300
624.75 -136.16347 833
159 13 65300
-347.69232 -69.53846 452
1 14 65300
-423.75 -86.92308 565
3 14 65300
-791.4231 -166.61539 1083
5 14 65300
6 14 65300
7 14 65300
-785.76923 -174.61539 1135
9 14 65300
-480.57693 -109.84615 714
-926.19232 -214.76923 1396
-672.80768 -158.30769 1029
13 14 65300
-663.1731 -160.76923 1045
15 14 65300
16 14 65300
17 14 65300
18 14 65300
19 14 65300
20 14 65300
21 14 65300
-359.71155 -99.230766 645
-545.88464 -153.23077 996
24 14 65300
-967.25964 -281.38461 1829
26 14 65300
27 14 65300
28 14 65300
29 14 65300
-574.03845 -183.69231 1194
-743.9519 -242.92308 1579
-642.46155 -214.15384 1392
-599.25 -204 1326
-340.57693 -118.46154 770
-700.52887 -249.07692 1619
-620.23077 -225.53847 1466
37 14 65300
-512.0769 -195.07692 1268
-494.75961 -193.07692 1255
-500 -200 1300
41 14 65300
-223.98077 -94.307693 613
-294.22116 -127.23077 827
-340.96155 -151.53847 985
45 14 65300
46 14 65300
47 14 65300
48 14 65300
49 14 65300
-573.46155 -305.84616 1988
51 14 65300
-544.9231 -311.38461 2024
53 14 65300
54 14 65300
55 14 65300
56 14 65300
57 14 65300
58 14 65300
59 14 65300
60 14 65300
61 14 65300
62 14 65300
63 14 65300
64 14 65300
65 14 65300
66 14 65300
67 14 65300
68 14 65300
-123.64423 -179.84616 1169
70 14 65300
71 14 65300
72 14 65300
73 14 65300
74 14 65500
-47.21154 -151.07692 982
-54.346153 -217.38461 1413
77 14 65300
78 14 65300
79 14 65300
0 -196.15384 1275
81 14 65300
82 14 65300
83 14 65300
84 14 65300
85 14 65300
86 14 65300
87 14 65300
88 14 65300
89 14 65300
90 14 65300
154.21153 -224.30769 1458
73.730766 -98.307693 639
93 14 65300
94 14 65300
95 14 65300
96 14 65300
97 14 65300
253.03847 -224.92308 1462
99 14 65300
292.30768 -233.84616 1520
101 14 65300
102 14 65300
103 14 65300
104 14 65300
105 14 65300
106 14 65300
843.23077 -499.69232 3248
108 14 65300
109 14 65300
110 14 65300
111 14 65300
112 14 65300
113 14 65300
114 14 65300
115 14 65300
116 14 65300
117 14 65300
118 14 65300
119 14 65300
120 14 65300
121 14 65300
122 14 65300
123 14 65300
124 14 65300
125 14 65300
415.76923 -144.61539 940
670.65387 -228.30769 1484
448.61539 -149.53847 972
129 14 65300
130 14 65300
131 14 65300
132 14 65300
441.32693 -133.23077 866
134 14 65300
135 14 65300
136 14 65300
137 14 65300
138 14 65300
139 14 65300
1154.4231 -307.84616 2001
141 14 65300
142 14 65300
143 14 65300
144 14 65300
145 14 65300
146 14 65300
147 14 65300
148 14 65300
149 14 65300
150 14 65300
151 14 65300
152 14 65300
153 14 65300
890.13464 -192.46153 1251
155 14 65300
156 14 65300
157 14 65300
158 14 65300
159 14 65300
-528.46155 -99.08654 687
1 15 65300
2 15 65300
-666.34613 -129.80769 900
-1065.4615 -210.28847 1458
-400.96155 -80.192307 556
-655.3269 -132.83653 921
-584 -120 832
-534.46155 -111.34615 772
-628.75964 -132.83653 921
-403.84616 -86.53846 600
-797.48077 -173.36539 1202
12 15 65300
-657.75964 -147.25961 1021
14 15 65300
-726.25 -167.59616 1162
-372.30768 -87.259613 605
-741.46155 -176.53847 1224
-469.17307 -113.50961 787
-598.26923 -147.11539 1020
20 15 65300
-507.17307 -128.94231 894
22 15 65300
-802.38464 -211.15384 1464
-411.92307 -110.33654 765
25 15 65300
-579.46155 -160.96153 1116
27 15 65300
-321 -92.596153 642
-817.96155 -240.57692 1668
-476.92307 -143.07692 992
31 15 65300
-612.9231 -191.53847 1328
33 15 65300
-358.71155 -116.97115 811
35 15 65300
36 15 65300
37 15 65300
38 15 65300
39 15 65300
40 15 65300
41 15 65300
42 15 65300
43 15 65300
44 15 65300
45 15 65300
46 15 65300
47 15 65300
48 15 65300
49 15 65300
50 15 65300
-359.15384 -185.76923 1288
-623.26923 -333.89423 2315
-272.07693 -151.15384 1048
-205 -118.26923 820
-367.78845 -220.67308 1530
-327.92307 -204.95192 1421
-329.74039 -215.04808 1491
-171.98077 -117.25961 813
59 15 65300
60 15 65300
61 15 65300
62 15 65300
-299.29807 -264.08655 1831
64 15 65300
65 15 65300
66 15 65300
67 15 65300
68 15 65300
69 15 65300
70 15 65300
71 15 65300
72 15 65500
73 15 65300
-46.78846 -116.97115 811
75 15 65300
-48.5 -181.875 1261
-36.403847 -182.01923 1262
-13.403846 -100.52885 697
79 15 65300
80 15 65500
13.211538 -198.17308 1374
82 15 65300
83 15 65300
84 15 65300
85 15 65300
86 15 65300
87 15 65300
88 15 65300
89 15 65300
90 15 65300
218.83653 -298.41345 2069
92 15 65300
264.875 -305.625 2119
211.21153 -226.29808 1569
95 15 65300
96 15 65300
97 15 65300
98 15 65300
99 15 65300
100 15 65300
101 15 65300
102 15 65300
103 15 65300
104 15 65300
105 15 65300
106 15 65300
107 15 65300
108 15 65300
487.98077 -252.40384 1750
110 15 65300
111 15 65300
112 15 65300
586.7019 -266.68268 1849
114 15 65300
115 15 65300
116 15 65300
117 15 65300
118 15 65300
119 15 65300
120 15 65300
414.33655 -151.58653 1051
122 15 65300
123 15 65300
439.15384 -149.71153 1038
125 15 65300
126 15 65300
127 15 65300
128 15 65300
129 15 65300
130 15 65300
1048.4423 -308.36539 2138
132 15 65300
658.93268 -186.49039 1293
134 15 65300
135 15 65300
136 15 65300
137 15 65300
138 15 65300
139 15 65300
140 15 65300
1088.6154 -267.69232 1856
1139.8462 -275.76923 1912
143 15 65300
144 15 65300
145 15 65300
146 15 65300
147 15 65300
148 15 65300
149 15 65300
150 15 65300
151 15 65300
558.69232 -116.39423 807
1175.7212 -241.58653 1675
154 15 65300
155 15 65300
156 15 65300
157 15 65300
158 15 65300
159 15 65300
0 16 65300
1 16 65300
2 16 65300
3 16 65300
4 16 65300
5 16 65300
-663.86536 -125.59615 933
-68.78846 -13.192307 98
-417.46155 -81.17308 603
9 16 65300
10 16 65300
11 16 65300
12 16 65300
13 16 65300
14 16 65300
-628.125 -135.28847 1005
-828.30768 -181.19231 1346
-574.875 -127.75 949
-1126.7307 -254.42308 1890
-485.06732 -111.32692 827
20 16 65300
21 16 65300
22 16 65300
23 16 65300
-747.9231 -186.98077 1389
-273.41345 -69.596153 517
26 16 65300
-334.81732 -88.442307 657
-740 -199.23077 1480
29 16 65300
30 16 65300
31 16 65300
32 16 65300
33 16 65300
34 16 65300
35 16 65300
36 16 65300
37 16 65300
38 16 65300
39 16 65300
40 16 65300
41 16 65300
42 16 65300
43 16 65300
44 16 65300
45 16 65300
46 16 65300
47 16 65300
48 16 65300
49 16 65300
-296.53845 -138.38461 1028
51 16 65300
-262.76923 -131.38461 976
53 16 65300
54 16 65300
55 16 65300
56 16 65300
57 16 65300
58 16 65300
59 16 65300
60 16 65300
61 16 65300
-365.71155 -284.44232 2113
63 16 65300
64 16 65300
-332.74039 -310.55768 2307
66 16 65300
67 16 65300
68 16 65300
69 16 65300
70 16 65300
-54.60577 -84.942307 631
-26.384615 -46.173077 343
73 16 65300
74 16 65300
75 16 65300
76 16 65300
77 16 65300
78 16 65300
79 16 65300
80 16 65300
81 16 65300
82 16 65300
83 16 65300
84 16 65300
85 16 65300
105.17308 -245.40384 1823
210.33653 -420.67307 3125
88 16 65300
89 16 65300
90 16 65300
91 16 65300
92 16 65300
93 16 65300
94 16 65300
95 16 65300
96 16 65300
97 16 65300
462.46155 -359.69232 2672
99 16 65300
496.34616 -347.44232 2581
101 16 65300
102 16 65300
103 16 65300
486.92307 -284.03845 2110
510.57693 -285.92307 2124
106 16 65300
690.83655 -358.21155 2661
683.5769 -341.78845 2539
183.20192 -88.442307 657
110 16 65300
111 16 65300
112 16 65300
113 16 65300
114 16 65300
115 16 65300
116 16 65300
117 16 65300
118 16 65300
119 16 65300
120 16 65300
121 16 65300
176.88461 -58.96154 438
123 16 65300
124 16 65300
125 16 65300
126 16 65300
127 16 65300
128 16 65300
129 16 65300
814.90387 -228.17308 1695
131 16 65300
132 16 65300
437.75961 -115.63461 859
134 16 65300
135 16 65300
136 16 65300
137 16 65300
138 16 65300
139 16 65300
140 16 65300
141 16 65300
524.61536 -118.46154 880
143 16 65300
144 16 65300
145 16 65300
146 16 65300
147 16 65300
148 16 65300
149 16 65300
150 16 65300
151 16 65300
152 16 65300
153 16 65300
154 16 65300
155 16 65300
156 16 65300
157 16 65300
762 -136.76923 1016
159 16 65300
0 17 65300
-862.16345 -141.875 1135
2 17 65300
-236.92308 -40 320
-575.84613 -98.5 788
-455.04807 -78.875 631
-435.46155 -76.5 612
-463.97116 -82.625 661
-512.30768 -92.5 740
-565.26923 -103.5 828
10 17 65300
-622.99036 -117.375 939
-1023.2692 -195.625 1565
13 17 65300
-618.11536 -121.75 974
-450.625 -90.125 721
-444.92307 -90.375 723
17 17 65300
18 17 65300
19 17 65300
20 17 65300
-1108.5193 -244.25 1954
22 17 65300
-456 -104 832
-1083.3846 -251.5 2012
25 17 65300
-478.73077 -115.25 922
-294.55768 -72.25 578
-500.5 -125.125 1001
29 17 65300
30 17 65300
31 17 65300
32 17 65300
-473.16345 -130.875 1047
-785.09613 -221.875 1775
-241.875 -69.875 559
-353.26923 -104.375 835
-255.51923 -77.25 618
-572.65387 -177.25 1418
-137.58653 -43.625 349
40 17 65300
-330.75 -110.25 882
-344.92307 -118 944
-344.38461 -121 968
-327.46155 -118.25 946
-352.69232 -131 1048
-246.5 -94.25 754
-585.75 -230.75 1846
-332.30768 -135 1080
49 17 65300
-307.21155 -133.125 1065
51 17 65300
-449.07693 -208.5 1668
53 17 65300
54 17 65300
55 17 65300
56 17 65300
57 17 65300
58 17 65300
-405.46155 -251 2008
-317.11539 -206.125 1649
61 17 65300
-358.78845 -259.125 2073
63 17 65300
64 17 65300
-260.76923 -226 1808
66 17 65300
67 17 65300
68 17 65300
-270.02884 -319.125 2553
-158.46153 -206 1648
-153.51923 -221.75 1774
-154.84616 -251.625 2013
-140.53847 -261 2088
74 17 65300
75 17 65300
76 17 65300
77 17 65300
-31.211538 -202.875 1623
79 17 65300
80 17 65300
81 17 65300
82 17 65530
30.403847 -131.75 1054
52.384617 -170.25 1362
85 17 65300
86 17 65300
87 17 65300
88 17 65300
323.30768 -467 3736
90 17 65300
91 17 65300
92 17 65300
93 17 65300
94 17 65300
355.09616 -307.75 2462
374.30768 -304.125 2433
463.57693 -354.5 2836
535.84613 -387 3096
481.94232 -329.75 2638
436.34616 -283.625 2269
101 17 65300
102 17 65300
103 17 65300
104 17 65300
105 17 65300
106 17 65300
107 17 65300
310.42307 -144.125 1153
109 17 65300
4.9038463 -2.125 17
111 17 65300
112 17 65300
113 17 65300
114 17 65300
115 17 65300
116 17 65300
117 17 65300
118 17 65300
454.125 -151.375 1211
631.9231 -205.375 1643
590.55768 -187.25 1498
122 17 65300
123 17 65300
124 17 65300
125 17 65300
1121.25 -316.875 2535
127 17 65300
128 17 65300
129 17 65300
130 17 65300
131 17 65300
895 -223.75 1790
133 17 65300
134 17 65300
135 17 65300
825.46155 -191.625 1533
719.0769 -164 1312
138 17 65300
139 17 65300
140 17 65300
141 17 65300
1179.7885 -247.375 1979
1221.2307 -252 2016
144 17 65300
145 17 65300
146 17 65300
147 17 65300
148 17 65300
149 17 65300
150 17 65300
151 17 65300
152 17 65300
1003.75 -178.75 1430
154 17 65300
155 17 65300
156 17 65300
157 17 65300
158 17 65300
650.23077 -107 856
0 18 65300
1 18 65300
-654.75 -100.73077 873
3 18 65300
-357.34616 -56.423077 489
5 18 65300
-478.15384 -77.53846 672
7 18 65300
8 18 65300
9 18 65300
10 18 65300
11 18 65300
12 18 65300
13 18 65300
14 18 65300
15 18 65300
16 18 65300
17 18 65300
18 18 65300
19 18 65300
20 18 65300
21 18 65300
-283.30768 -58.615383 508
23 18 65300
24 18 65300
25 18 65300
26 18 65300
27 18 65300
-570.5 -131.65384 1141
29 18 65300
30 18 65300
31 18 65300
-576 -144 1248
33 18 65300
34 18 65300
35 18 65300
-334.23077 -91.153847 790
-494.08655 -137.88461 1195
38 18 65300
-360.32693 -105.46154 914
40 18 65300
41 18 65300
-645.26923 -203.76923 1766
43 18 65300
44 18 65300
45 18 65300
46 18 65300
47 18 65300
48 18 65300
49 18 65300
-416.53845 -166.61539 1444
51 18 65300
-272.19232 -116.65385 1011
53 18 65300
54 18 65300
55 18 65300
56 18 65300
-353.625 -184.5 1599
58 18 65300
59 18 65300
60 18 65300
-165.88461 -104.76923 908
-221.36539 -147.57692 1279
-279.02884 -196.96153 1707
64 18 65300
65 18 65300
66 18 65300
67 18 65300
-247.03847 -247.03847 2141
-258.60577 -282.11539 2445
-190.19231 -228.23077 1978
71 18 65300
-170.38461 -255.57692 2215
-160.66347 -275.42307 2387
-140.88461 -281.76923 2442
-84.807693 -203.53847 1764
76 18 65300
77 18 65300
-32.03846 -192.23077 1666
79 18 65300
80 18 65300
81 18 65300
82 18 65300
83 18 65300
84 18 65300
85 18 65300
86 18 65300
244.52884 -419.19232 3633
243.61539 -365.42307 3167
353.76923 -471.69232 4088
275.76923 -330.92307 2868
91 18 65300
92 18 65300
93 18 65300
94 18 65300
95 18 65300
401.84616 -301.38461 2612
97 18 65300
349.44232 -232.96153 2019
331.95193 -209.65384 1817
100 18 65300
101 18 65300
102 18 65300
103 18 65300
328.38461 -164.19231 1423
105 18 65300
194.25 -89.653847 777
107 18 65300
108 18 65300
109 18 65300
110 18 65300
111 18 65300
337.84616 -126.69231 1098
113 18 65300
570.15387 -201.23077 1744
425.38461 -145.84616 1264
435.46155 -145.15384 1258
369.28845 -119.76923 1038
388.40384 -122.65385 1063
119 18 65300
120 18 65300
121 18 65300
122 18 65300
123 18 65300
124 18 65300
125 18 65300
889.48077 -232.03847 2011
127 18 65300
128 18 65300
129 18 65300
130 18 65300
131 18 65300
940 -216.92308 1880
133 18 65300
134 18 65300
135 18 65300
136 18 65300
137 18 65300
138 18 65300
139 18 65300
140 18 65300
141 18 65300
142 18 65300
143 18 65300
144 18 65300
145 18 65300
813.5769 -147.92308 1282
147 18 65300
148 18 65300
149 18 65300
150 18 65300
151 18 65300
152 18 65300
153 18 65300
154 18 65300
155 18 65300
156 18 65300
157 18 65300
158 18 65300
159 18 65300
-543.0769 -74.67308 706
-409.43268 -57.009617 539
2 19 65300
3 19 65300
4 19 65300
5 19 65300
6 19 65300
7 19 65300
8 19 65300
9 19 65300
10 19 65300
11 19 65300
12 19 65300
13 19 65300
14 19 65300
15 19 65300
16 19 65300
17 19 65300
-239.65384 -42.51923 402
19 19 65300
20 19 65300
21 19 65300
22 19 65300
23 19 65300
24 19 65300
25 19 65300
26 19 65300
27 19 65300
28 19 65300
29 19 65300
30 19 65300
31 19 65300
32 19 65300
-636.75964 -149.02884 1409
-361.80768 -86.519234 818
35 19 65300
-547.46155 -136.86539 1294
-500.70193 -128.08653 1211
38 19 65300
39 19 65300
40 19 65300
41 19 65300
42 19 65300
43 19 65300
44 19 65300
45 19 65300
46 19 65300
47 19 65300
48 19 65300
49 19 65300
50 19 65300
51 19 65300
-356.46155 -140.03847 1324
53 19 65300
54 19 65300
-202.88461 -89.269234 844
56 19 65300
57 19 65300
58 19 65300
59 19 65300
60 19 65300
61 19 65300
62 19 65300
-212.17308 -137.28847 1298
64 19 65300
65 19 65300
66 19 65300
67 19 65300
-329.42307 -301.97116 2855
69 19 65300
-280.48077 -308.52884 2917
-189 -231 2184
-148.30769 -203.92308 1928
-206.5 -324.5 3068
-111.28846 -204.02884 1929
-103.02885 -226.66347 2143
-55.884617 -153.68269 1453
77 19 65300
78 19 65300
-13.586538 -149.45192 1413
0 -118.14423 1117
81 19 65300
82 19 65300
83 19 65300
84 19 65300
85 19 65300
86 19 65300
252.80769 -397.26923 3756
225.84616 -310.53845 2936
89 19 65300
90 19 65300
91 19 65300
92 19 65300
93 19 65300
94 19 65300
95 19 65300
96 19 65300
329.04807 -212.91347 2013
98 19 65300
99 19 65300
100 19 65300
101 19 65300
102 19 65300
103 19 65300
104 19 65300
105 19 65300
392.5 -166.05769 1570
597.11536 -243.26923 2300
108 19 65300
390.94232 -148.28847 1402
110 19 65300
111 19 65300
112 19 65300
113 19 65300
114 19 65300
115 19 65300
116 19 65300
117 19 65300
118 19 65300
119 19 65300
120 19 65300
121 19 65300
122 19 65300
123 19 65300
124 19 65300
681.05768 -166.48077 1574
126 19 65300
127 19 65300
128 19 65300
129 19 65300
130 19 65300
131 19 65300
132 19 65300
133 19 65300
134 19 65300
135 19 65300
136 19 65300
137 19 65300
138 19 65300
139 19 65300
140 19 65300
141 19 65300
538.9231 -95.615387 904
1143.6923 -199.69231 1888
144 19 65300
145 19 65300
146 19 65300
147 19 65300
1161.2307 -187.84616 1776
149 19 65300
150 19 65300
151 19 65300
152 19 65300
786.15387 -118.46154 1120
154 19 65300
155 19 65300
156 19 65300
157 19 65300
158 19 65300
594.01923 -82.71154 782
0 20 65300
1 20 65300
2 20 65300
3 20 65300
4 20 65300
5 20 65300
6 20 65300
-328.5 -45 468
8 20 65300
9 20 65300
10 20 65300
11 20 65300
12 20 65300
13 20 65300
14 20 65300
15 20 65300
16 20 65300
-282.28845 -44.807693 466
18 20 65300
19 20 65300
20 20 65300
21 20 65300
22 20 65300
23 20 65300
24 20 65300
25 20 65300
26 20 65300
27 20 65300
28 20 65300
29 20 65300
30 20 65300
31 20 65300
32 20 65300
33 20 65300
-501.57693 -109.03846 1134
35 20 65300
-114.23077 -25.961538 270
37 20 65300
-552.86536 -131.63461 1369
39 20 65300
40 20 65300
41 20 65300
42 20 65300
-513.73077 -138.84616 1444
44 20 65300
45 20 65300
46 20 65300
-257.65384 -78.07692 812
48 20 65300
49 20 65300
50 20 65300
51 20 65300
-327.38461 -116.92308 1216
-494.56732 -183.17308 1905
54 20 65300
-131.97116 -52.78846 549
56 20 65300
57 20 65300
58 20 65300
59 20 65300
60 20 65300
61 20 65300
62 20 65300
-229.5 -135 1404
-159.38461 -99.615387 1036
65 20 65300
66 20 65300
67 20 65300
68 20 65300
-196.51923 -178.65384 1858
-259.32693 -259.32693 2697
-235.38461 -261.53845 2720
72 20 65300
73 20 65300
-179.25 -298.75 3107
75 20 65300
76 20 65300
77 20 65300
78 20 65300
-25.836538 -258.36539 2687
0 -208.17308 2165
81 20 65300
82 20 65300
14.682693 -48.942307 509
84 20 65300
85 20 65300
105.34615 -175.57692 1826
223.46153 -319.23077 3320
88 20 65300
89 20 65300
90 20 65300
91 20 65300
92 20 65300
93 20 65300
257.38461 -183.84616 1912
95 20 65300
96 20 65300
97 20 65300
98 20 65300
99 20 65300
100 20 65300
150.02884 -71.442307 743
102 20 65300
103 20 65300
104 20 65300
105 20 65300
106 20 65300
107 20 65300
108 20 65300
408.23077 -140.76923 1464
351.34616 -117.11539 1218
111 20 65300
112 20 65300
113 20 65300
114 20 65300
115 20 65300
116 20 65300
117 20 65300
118 20 65300
119 20 65300
570.38464 -142.59616 1483
236.53847 -57.692307 600
122 20 65300
123 20 65300
124 20 65300
460.81732 -102.40385 1065
126 20 65300
127 20 65300
128 20 65300
129 20 65300
130 20 65300
131 20 65300
132 20 65300
133 20 65300
134 20 65300
135 20 65300
136 20 65300
137 20 65300
138 20 65300
139 20 65300
140 20 65300
141 20 65300
142 20 65300
143 20 65300
144 20 65300
145 20 65300
146 20 65300
147 20 65300
148 20 65300
149 20 65300
150 20 65300
151 20 65300
152 20 65300
270.24039 -37.01923 385
154 20 65300
155 20 65300
156 20 65300
157 20 65300
158 20 65300
159 20 65300
0 21 65300
1 21 65300
2 21 65300
3 21 65300
4 21 65300
5 21 65300
6 21 65300
7 21 65300
8 21 65300
9 21 65300
10 21 65300
11 21 65300
12 21 65300
13 21 65300
14 21 65300
15 21 65300
16 21 65300
17 21 65300
18 21 65300
19 21 65300
20 21 65300
21 21 65300
22 21 65300
23 21 65300
24 21 65300
25 21 65300
26 21 65300
27 21 65300
28 21 65300
29 21 65300
30 21 65300
31 21 65300
32 21 65300
33 21 65300
-759.88464 -148.67308 1718
35 21 65300
-181.92308 -37.21154 430
37 21 65300
-452.71155 -97.009613 1121
39 21 65300
40 21 65300
41 21 65300
42 21 65300
43 21 65300
44 21 65300
45 21 65300
46 21 65300
47 21 65300
48 21 65300
49 21 65300
-362.30768 -108.69231 1256
51 21 65300
-369.65384 -118.81731 1373
53 21 65300
54 21 65300
-386.53845 -139.15384 1608
56 21 65300
57 21 65300
-366.59616 -149.97116 1733
59 21 65300
60 21 65300
61 21 65300
-340.61539 -170.30769 1968
63 21 65300
64 21 65300
65 21 65300
66 21 65300
67 21 65300
68 21 65300
69 21 65300
-230.38461 -207.34616 2396
-250.35577 -250.35577 2893
-203.15384 -228.54808 2641
-157.02884 -201.89423 2333
74 21 65300
75 21 65300
76 21 65300
77 21 65300
78 21 65300
79 21 65300
80 21 65300
23.442308 -210.98077 2438
82 21 65300
41.971153 -125.91346 1455
84 21 65300
85 21 65300
86 21 65300
236.58653 -304.18268 3515
194.69231 -219.02884 2531
89 21 65300
151.05769 -135.95192 1571
91 21 65300
92 21 65300
157.5 -109.03846 1260
94 21 65300
95 21 65300
96 21 65300
97 21 65300
98 21 65300
66.865387 -31.673077 366
74.230766 -33.403847 386
101 21 65300
102 21 65300
103 21 65300
104 21 65300
506.73077 -182.42308 2108
106 21 65300
107 21 65300
108 21 65300
694.0481 -215.39423 2489
110 21 65300
111 21 65300
112 21 65300
113 21 65300
114 21 65300
115 21 65300
419.88461 -104.97115 1213
117 21 65300
118 21 65300
382.125 -88.182693 1019
120 21 65300
121 21 65300
122 21 65300
504.83655 -105.66346 1221
124 21 65300
125 21 65300
126 21 65300
127 21 65300
128 21 65300
129 21 65300
130 21 65300
131 21 65300
132 21 65300
133 21 65300
134 21 65300
135 21 65300
136 21 65300
137 21 65300
138 21 65300
139 21 65300
140 21 65300
141 21 65300
142 21 65300
143 21 65300
144 21 65300
145 21 65300
146 21 65300
147 21 65300
148 21 65300
149 21 65300
150 21 65300
151 21 65300
1042.6154 -130.32692 1506
782.64423 -96.490387 1115
154 21 65300
155 21 65300
156 21 65300
157 21 65300
158 21 65300
401.83655 -45.778847 529
0 22 65300
1 22 65300
2 22 65300
3 22 65300
4 22 65300
5 22 65300
6 22 65300
7 22 65300
8 22 65300
9 22 65300
10 22 65300
11 22 65300
12 22 65300
13 22 65300
14 22 65300
15 22 65300
16 22 65300
17 22 65300
18 22 65300
19 22 65300
20 22 65300
21 22 65300
22 22 65300
23 22 65300
24 22 65300
25 22 65300
26 22 65300
27 22 65300
28 22 65300
29 22 65300
30 22 65300
31 22 65300
32 22 65300
33 22 65300
34 22 65300
-473.36539 -84.153847 1094
36 22 65300
37 22 65300
38 22 65300
39 22 65300
40 22 65300
-193.125 -39.615383 515
42 22 65300
43 22 65300
44 22 65300
45 22 65300
46 22 65300
47 22 65300
48 22 65300
49 22 65300
50 22 65300
51 22 65300
-239.88461 -68.53846 891
53 22 65300
54 22 65300
55 22 65300
56 22 65300
57 22 65300
58 22 65300
59 22 65300
60 22 65300
61 22 65300
62 22 65300
-430.55768 -202.61539 2634
64 22 65300
65 22 65300
66 22 65300
67 22 65300
68 22 65300
69 22 65300
70 22 65500
71 22 65300
-137.30769 -137.30769 1785
-163.96153 -187.38461 2436
-62.942307 -83.92308 1091
-97.596153 -156.15384 2030
-113 -226 2938
77 22 65300
78 22 65300
-20.307692 -162.46153 2112
80 22 65300
81 22 65300
82 22 65300
83 22 65300
84 22 65300
85 22 65300
86 22 65500
87 22 65300
83.153847 -83.153847 1081
89 22 65300
90 22 65300
91 22 65300
196.5 -131 1703
93 22 65300
94 22 65300
95 22 65300
96 22 65300
97 22 65300
98 22 65300
99 22 65300
100 22 65300
101 22 65300
102 22 65300
103 22 65300
104 22 65300
105 22 65300
106 22 65300
107 22 65300
729.88464 -208.53847 2711
109 22 65300
110 22 65300
111 22 65300
112 22 65300
113 22 65300
114 22 65300
115 22 65300
116 22 65300
117 22 65300
118 22 65300
119 22 65300
120 22 65300
121 22 65300
218.07692 -41.53846 540
241.04808 -44.846153 583
124 22 65300
125 22 65300
126 22 65300
127 22 65300
128 22 65300
129 22 65300
130 22 65300
131 22 65300
132 22 65300
133 22 65300
817.26923 -121.07692 1574
135 22 65300
422.15384 -60.307693 784
137 22 65300
138 22 65300
139 22 65300
470.19232 -62.692307 815
141 22 65300
142 22 65300
143 22 65300
144 22 65300
145 22 65300
146 22 65300
147 22 65300
558.38464 -65.692307 854
149 22 65300
150 22 65300
151 22 65300
771.9231 -85.769234 1115
153 22 65300
154 22 65300
155 22 65300
156 22 65300
684.85577 -71.153847 925
42 -4.3076925 56
446.65384 -45.23077 588
0 23 65300
1 23 65300
2 23 65300
3 23 65300
4 23 65300
5 23 65300
6 23 65300
7 23 65300
8 23 65300
9 23 65300
10 23 65300
11 23 65300
12 23 65300
13 23 65300
14 23 65300
15 23 65300
16 23 65300
17 23 65300
18 23 65300
19 23 65300
20 23 65300
21 23 65300
22 23 65300
23 23 65300
24 23 65300
25 23 65300
26 23 65300
27 23 65300
28 23 65300
29 23 65300
30 23 65300
31 23 65300
32 23 65300
33 23 65300
34 23 65300
35 23 65300
36 23 65300
37 23 65300
38 23 65300
39 23 65300
40 23 65300
41 23 65300
42 23 65300
43 23 65300
44 23 65300
45 23 65300
46 23 65300
47 23 65300
48 23 65300
49 23 65300
50 23 65300
51 23 65300
52 23 65300
-394.875 -102.375 1521
54 23 65300
55 23 65300
56 23 65300
57 23 65300
58 23 65300
59 23 65300
60 23 65300
61 23 65300
62 23 65300
63 23 65300
64 23 65300
65 23 65300
66 23 65300
67 23 65300
68 23 65300
-123.43269 -78.54808 1167
70 23 65300
71 23 65300
-157.23077 -137.57692 2044
73 23 65300
74 23 65300
75 23 65300
76 23 65300
77 23 65300
78 23 65300
79 23 65300
80 23 65300
81 23 65300
82 23 65300
83 23 65300
84 23 65300
85 23 65300
73.615387 -85.884613 1276
87.096153 -87.096153 1294
88 23 65300
141.14423 -109.77885 1631
80.57692 -56.403847 838
91 23 65300
92 23 65300
93 23 65300
94 23 65300
95 23 65300
96 23 65300
97 23 65300
114.40385 -44.490383 661
99 23 65300
100 23 65300
101 23 65300
102 23 65300
103 23 65300
104 23 65300
547.35577 -153.25961 2277
106 23 65300
107 23 65300
596.0769 -149.01923 2214
109 23 65300
110 23 65300
111 23 65300
112 23 65300
113 23 65300
114 23 65300
115 23 65300
116 23 65300
117 23 65300
118 23 65300
368.25 -66.096153 982
516.9231 -90.46154 1344
121 23 65300
122 23 65300
642.51923 -104.59615 1554
124 23 65300
125 23 65300
126 23 65300
127 23 65300
128 23 65300
129 23 65300
286.05768 -40.048077 595
131 23 65300
132 23 65300
133 23 65300
134 23 65300
135 23 65300
136 23 65300
137 23 65300
138 23 65300
139 23 65300
140 23 65300
141 23 65300
142 23 65300
143 23 65300
144 23 65300
145 23 65300
146 23 65300
147 23 65300
278.53845 -28.673077 426
149 23 65300
150 23 65300
151 23 65300
152 23 65300
867.5769 -83.192307 1236
154 23 65300
155 23 65300
864.5 -79.625 1183
710.76923 -64.615387 960
158 23 65300
688.97113 -61.048077 907
0 24 65300
1 24 65300
2 24 65300
3 24 65300
4 24 65300
5 24 65300
6 24 65300
7 24 65300
8 24 65300
9 24 65300
10 24 65300
11 24 65300
12 24 65300
13 24 65300
14 24 65300
15 24 65300
16 24 65300
17 24 65300
18 24 65300
19 24 65300
20 24 65300
21 24 65300
22 24 65300
23 24 65300
24 24 65300
25 24 65300
26 24 65300
27 24 65300
28 24 65300
29 24 65300
30 24 65300
31 24 65300
32 24 65300
33 24 65300
34 24 65300
35 24 65300
-714.5769 -97.442307 1689
37 24 65300
38 24 65300
39 24 65300
40 24 65300
41 24 65300
42 24 65300
43 24 65300
-590.53845 -98.42308 1706
45 24 65300
46 24 65300
47 24 65300
48 24 65300
49 24 65300
-409.61539 -81.92308 1420
51 24 65300
52 24 65300
53 24 65300
54 24 65300
55 24 65300
56 24 65300
57 24 65300
58 24 65300
-486.02884 -138.86539 2407
60 24 65300
61 24 65300
-315.17307 -105.05769 1821
63 24 65300
64 24 65300
65 24 65300
-323.48077 -138.63461 2403
67 24 65300
68 24 65300
69 24 65300
70 24 65300
-239.27884 -159.51923 2765
72 24 65300
73 24 65300
74 24 65300
75 24 65300
76 24 65300
77 24 65300
-38.48077 -115.44231 2001
-17.576923 -105.46154 1828
80 24 65300
81 24 65300
82 24 65300
67.269234 -134.53847 2332
84 24 65300
34.326923 -41.192307 714
86 24 65300
87 24 65300
88 24 65300
89 24 65300
159.42308 -95.653847 1658
115.81731 -63.173077 1095
92 24 65300
93 24 65300
94 24 65300
95 24 65300
96 24 65300
97 24 65300
98 24 65300
99 24 65300
100 24 65300
101 24 65300
102 24 65300
103 24 65300
104 24 65300
105 24 65300
106 24 65300
107 24 65300
284.03845 -60.865383 1055
109 24 65300
110 24 65300
111 24 65300
112 24 65300
488.97116 -88.903847 1541
259.90384 -45.865383 795
115 24 65300
116 24 65300
117 24 65300
118 24 65300
119 24 65300
120 24 65300
121 24 65300
122 24 65300
736.375 -102.75 1781
124 24 65300
125 24 65300
126 24 65300
127 24 65300
571.38464 -71.42308 1238
129 24 65300
130 24 65300
131 24 65300
132 24 65300
133 24 65300
134 24 65300
135 24 65300
136 24 65300
137 24 65300
138 24 65300
139 24 65300
140 24 65300
141 24 65300
142 24 65300
143 24 65300
144 24 65300
1166.25 -107.65385 1866
146 24 65300
147 24 65300
148 24 65300
149 24 65300
150 24 65300
151 24 65300
152 24 65300
153 24 65300
154 24 65300
155 24 65300
156 24 65300
157 24 65300
158 24 65300
159 24 65300
0 25 65300
1 25 65300
2 25 65300
3 25 65300
4 25 65300
5 25 65300
6 25 65300
7 25 65300
8 25 65300
9 25 65300
10 25 65300
11 25 65300
12 25 65300
13 25 65300
14 25 65300
15 25 65300
16 25 65300
17 25 65300
18 25 65300
19 25 65300
20 25 65300
21 25 65300
22 25 65300
23 25 65300
24 25 65300
25 25 65300
26 25 65300
27 25 65300
28 25 65300
29 25 65300
30 25 65300
31 25 65300
32 25 65300
33 25 65300
34 25 65300
35 25 65300
-462.42307 -52.548077 1093
37 25 65300
38 25 65300
39 25 65300
40 25 65300
41 25 65300
42 25 65300
43 25 65300
44 25 65300
45 25 65300
46 25 65300
47 25 65300
48 25 65300
49 25 65300
-667.78845 -111.29808 2315
-435.27884 -75.04808 1561
-431.84616 -77.115387 1604
53 25 65300
54 25 65300
-611.2981 -122.25961 2543
56 25 65300
-294.79807 -64.08654 1333
58 25 65300
59 25 65300
60 25 65300
-344.55768 -90.67308 1886
62 25 65300
63 25 65300
64 25 65300
65 25 65300
66 25 65300
-306.125 -117.74039 2449
68 25 65300
69 25 65300
-262.11539 -131.05769 2726
71 25 65300
-202.92308 -126.82692 2638
73 25 65300
74 25 65300
75 25 65300
76 25 65300
77 25 65300
-22.826923 -57.067307 1187
79 25 65300
80 25 65300
81 25 65300
82 25 65300
83 25 65300
84 25 65300
85 25 65300
115.5 -96.25 2002
189.80769 -135.57692 2820
137.61539 -86.009613 1789
89 25 65300
219.71153 -109.85577 2285
91 25 65300
187.03847 -77.932693 1621
163.5 -62.884617 1308
338.96155 -121.05769 2518
95 25 65300
168.76923 -52.740383 1097
97 25 65300
98 25 65300
99 25 65300
100 25 65300
101 25 65300
102 25 65300
103 25 65300
104 25 65300
105 25 65300
106 25 65300
107 25 65300
108 25 65300
266.57693 -45.96154 956
110 25 65300
111 25 65300
227.69231 -35.576923 740
113 25 65300
309.59616 -45.528847 947
115 25 65300
116 25 65300
117 25 65300
118 25 65300
119 25 65300
120 25 65300
121 25 65300
122 25 65300
643.75964 -74.855766 1557
124 25 65300
125 25 65300
126 25 65300
127 25 65300
128 25 65300
786.35577 -80.240387 1669
130 25 65300
131 25 65300
132 25 65300
133 25 65300
134 25 65300
135 25 65300
136 25 65300
137 25 65300
138 25 65300
139 25 65300
140 25 65300
141 25 65300
142 25 65300
143 25 65300
144 25 65300
145 25 65300
1335.8654 -101.20192 2105
147 25 65300
148 25 65300
149 25 65300
150 25 65300
151 25 65300
152 25 65300
610.6731 -41.826923 870
154 25 65300
155 25 65300
156 25 65300
157 25 65300
158 25 65300
1440.2307 -91.153847 1896
0 26 65300
-609.97113 -30.884615 803
2 26 65300
3 26 65300
4 26 65300
5 26 65300
6 26 65300
7 26 65300
8 26 65300
9 26 65300
10 26 65300
11 26 65300
12 26 65300
13 26 65300
14 26 65300
15 26 65300
16 26 65300
17 26 65300
18 26 65300
19 26 65300
20 26 65300
21 26 65300
22 26 65300
-236.76923 -16.615385 432
24 26 65300
25 26 65300
26 26 65300
27 26 65300
28 26 65300
29 26 65300
30 26 65300
31 26 65300
32 26 65300
33 26 65300
34 26 65300
35 26 65300
36 26 65300
37 26 65300
38 26 65300
39 26 65300
40 26 65300
41 26 65300
42 26 65300
43 26 65300
44 26 65300
45 26 65300
46 26 65300
47 26 65300
48 26 65300
49 26 65300
-296.82693 -39.576923 1029
51 26 65300
-454.73077 -64.96154 1689
53 26 65300
54 26 65300
55 26 65300
56 26 65300
-198.375 -34.5 897
-225.71153 -41.03846 1067
59 26 65300
-435.96155 -87.192307 2267
61 26 65300
62 26 65300
63 26 65300
-157.38461 -39.346153 1023
65 26 65300
66 26 65300
-296 -91.07692 2368
-333.46155 -111.15385 2890
69 26 65300
-139.71153 -55.884617 1453
71 26 65300
72 26 65300
73 26 65300
74 26 65300
75 26 65300
76 26 65300
-74.192307 -98.92308 2572
78 26 65300
79 26 65300
80 26 65300
81 26 65300
82 26 65300
83 26 65300
84 26 65300
85 26 65300
86 26 65300
87 26 65300
88 26 65300
227.42308 -101.07692 2628
90 26 65300
230.15384 -83.692307 2176
92 26 65300
93 26 65300
390.38461 -111.53846 2900
95 26 65300
96 26 65300
97 26 65300
98 26 65300
99 26 65300
100 26 65300
101 26 65300
216.40384 -39.346153 1023
103 26 65300
104 26 65300
105 26 65300
106 26 65300
107 26 65300
108 26 65300
334.89423 -46.192307 1201
110 26 65300
111 26 65300
112 26 65300
217.03847 -26.307692 684
114 26 65300
146.05769 -16.692308 434
116 26 65300
117 26 65300
118 26 65300
119 26 65300
120 26 65300
121 26 65300
569.8269 -54.26923 1411
123 26 65300
124 26 65300
125 26 65300
126 26 65300
127 26 65300
712.15387 -59.346153 1543
129 26 65300
130 26 65300
131 26 65300
132 26 65300
133 26 65300
134 26 65300
135 26 65300
136 26 65300
137 26 65300
138 26 65300
139 26 65300
140 26 65300
141 26 65300
142 26 65300
143 26 65300
144 26 65300
145 26 65300
146 26 65300
147 26 65300
148 26 65300
149 26 65300
150 26 65300
151 26 65300
152 26 65300
153 26 65300
154 26 65300
155 26 65300
156 26 65300
157 26 65300
158 26 65300
159 26 65300
0 27 65300
1 27 65300
2 27 65300
3 27 65300
4 27 65300
5 27 65300
6 27 65300
7 27 65300
8 27 65300
9 27 65300
10 27 65300
11 27 65300
12 27 65300
13 27 65300
14 27 65300
15 27 65300
16 27 65300
17 27 65300
18 27 65300
19 27 65300
20 27 65300
21 27 65300
22 27 65300
23 27 65300
24 27 65300
25 27 65300
26 27 65300
27 27 65300
28 27 65300
29 27 65300
30 27 65300
31 27 65300
32 27 65300
33 27 65300
34 27 65300
35 27 65300
36 27 65300
-707.84613 -49.384617 1712
38 27 65300
39 27 65300
40 27 65300
41 27 65300
42 27 65300
43 27 65300
44 27 65300
45 27 65300
46 27 65300
47 27 65300
48 27 65300
49 27 65300
-676.44232 -67.644234 2345
51 27 65300
-225.61539 -24.173077 838
53 27 65300
-420.25 -48.490383 1681
55 27 65300
56 27 65300
57 27 65300
58 27 65300
59 27 65300
-592.30768 -88.846153 3080
61 27 65300
62 27 65300
-105.75961 -18.663462 647
-138 -25.875 897
65 27 65300
66 27 65300
-227.375 -52.471153 1819
-336 -84 2912
69 27 65300
70 27 65300
-177.75 -59.25 2054
72 27 65300
73 27 65300
74 27 65300
-84.08654 -50.451923 1749
76 27 65300
77 27 65300
-59.596153 -89.394234 3099
-18.682692 -56.048077 1943
0 -26.423077 916
11.182693 -33.548077 1163
25.403847 -38.10577 1321
51.46154 -51.46154 1784
84 27 65300
85 27 65300
86 27 65300
87 27 65300
88 27 65300
89 27 65300
90 27 65300
91 27 65300
92 27 65300
93 27 65300
293.73077 -62.942307 2182
95 27 65300
96 27 65300
97 27 65300
98 27 65300
99 27 65300
100 27 65300
101 27 65300
102 27 65300
103 27 65300
104 27 65300
105 27 65300
106 27 65300
107 27 65300
108 27 65300
109 27 65300
371.53845 -37.153847 1288
490.63461 -47.48077 1646
192.92308 -18.086538 627
113 27 65300
114 27 65300
317.69232 -27.23077 944
116 27 65300
117 27 65300
118 27 65300
119 27 65300
243.84616 -18.288462 634
609.08655 -44.567307 1545
472.09616 -33.721153 1169
123 27 65300
124 27 65300
125 27 65300
126 27 65300
127 27 65300
318.46155 -19.903847 690
686.47113 -42.028847 1457
130 27 65300
131 27 65300
382 -22.038462 764
133 27 65300
134 27 65300
135 27 65300
136 27 65300
137 27 65300
138 27 65300
139 27 65300
646.73077 -32.33654 1121
141 27 65300
142 27 65300
143 27 65300
144 27 65300
145 27 65300
146 27 65300
147 27 65300
148 27 65300
149 27 65300
150 27 65300
151 27 65300
152 27 65300
621.90387 -25.557692 886
154 27 65300
155 27 65300
156 27 65300
157 27 65300
158 27 65300
159 27 65300
-644.61536 -16.115385 838
1 28 65300
2 28 65300
3 28 65300
4 28 65300
5 28 65300
6 28 65300
7 28 65300
-350.30768 -9.7307692 506
9 28 65300
10 28 65300
11 28 65300
12 28 65300
13 28 65300
14 28 65300
15 28 65300
16 28 65300
17 28 65300
18 28 65300
19 28 65300
20 28 65300
21 28 65300
22 28 65300
23 28 65300
24 28 65300
25 28 65300
26 28 65300
27 28 65300
28 28 65300
29 28 65300
30 28 65300
31 28 65300
32 28 65300
33 28 65300
34 28 65300
35 28 65300
36 28 65300
37 28 65300
38 28 65300
39 28 65300
40 28 65300
41 28 65300
42 28 65300
43 28 65300
44 28 65300
45 28 65300
46 28 65300
47 28 65300
48 28 65300
49 28 65300
50 28 65300
51 28 65300
-424.03845 -30.288462 1575
53 28 65300
54 28 65300
-274.75961 -21.98077 1143
56 28 65300
57 28 65300
58 28 65300
59 28 65300
-503.46155 -50.346153 2618
61 28 65300
62 28 65300
-194.84616 -22.923077 1192
-247.69231 -30.961538 1610
65 28 65300
66 28 65300
-265.5 -40.846153 2124
-288.34616 -48.057693 2499
69 28 65300
70 28 65300
71 28 65300
72 28 65300
73 28 65300
74 28 65300
75 28 65300
76 28 65300
77 28 65300
-56.826923 -56.826923 2955
79 28 65300
0 -23.076923 1200
19.673077 -39.346153 2046
26.384615 -26.384615 1372
29.653847 -19.76923 1028
84 28 65300
85 28 65300
86 28 65300
51.557693 -14.730769 766
179.76923 -44.942307 2337
89 28 65300
90 28 65300
91 28 65300
301.73077 -50.28846 2615
93 28 65300
94 28 65300
95 28 65300
96 28 65300
277.06732 -32.596153 1695
98 28 65300
99 28 65300
100 28 65300
101 28 65300
102 28 65300
103 28 65300
104 28 65300
105 28 65300
405.25 -31.173077 1621
107 28 65300
108 28 65300
446.43268 -30.788462 1601
587.88464 -39.192307 2038
111 28 65300
112 28 65300
113 28 65300
166.40384 -9.7884617 509
115 28 65300
116 28 65300
117 28 65300
229.46153 -12.076923 628
119 28 65300
120 28 65300
121 28 65300
122 28 65300
123 28 65300
124 28 65300
125 28 65300
126 28 65300
127 28 65300
290.76923 -12.115385 630
129 28 65300
130 28 65300
131 28 65300
933 -35.884617 1866
133 28 65300
279.86539 -10.365385 539
135 28 65300
136 28 65300
137 28 65300
138 28 65300
139 28 65300
140 28 65300
141 28 65300
142 28 65300
143 28 65300
547.0769 -17.096153 889
145 28 65300
380.13461 -11.519231 599
501.21155 -14.961538 778
148 28 65300
149 28 65300
1429.6154 -40.846153 2124
151 28 65300
152 28 65300
153 28 65300
154 28 65300
155 28 65300
765.84613 -20.153847 1048
157 28 65300
158 28 65300
159 28 65300
0 29 65530
1 29 65300
2 29 65300
3 29 65300
4 29 65300
-620.19232 -8.2692308 860
6 29 65300
-150.91347 -2.0673077 215
-824.53845 -11.451923 1191
9 29 65300
10 29 65300
11 29 65300
12 29 65300
13 29 65300
14 29 65300
15 29 65300
16 29 65300
17 29 65300
18 29 65300
19 29 65300
20 29 65300
21 29 65300
22 29 65300
23 29 65300
24 29 65300
25 29 65300
26 29 65300
27 29 65300
28 29 65300
29 29 65300
30 29 65300
31 29 65300
32 29 65300
33 29 65300
34 29 65300
35 29 65300
36 29 65300
37 29 65300
38 29 65300
39 29 65300
40 29 65300
41 29 65300
42 29 65300
43 29 65300
44 29 65300
45 29 65300
46 29 65300
47 29 65300
48 29 65300
-322.81732 -10.413462 1083
-454.03845 -15.134615 1574
51 29 65300
52 29 65300
53 29 65300
54 29 65300
55 29 65300
56 29 65300
57 29 65300
58 29 65300
59 29 65300
-405.57693 -20.278847 2109
61 29 65300
62 29 65300
63 29 65300
64 29 65300
65 29 65300
66 29 65300
-244.75 -18.826923 1958
-161.65384 -13.471154 1401
-286.42307 -26.038462 2708
70 29 65300
71 29 65300
72 29 65530
73 29 65300
74 29 65300
-132.06731 -26.413462 2747
-95.730766 -23.932692 2489
77 29 65300
78 29 65300
79 29 65300
80 29 65300
23.461538 -23.461538 2440
17.634615 -8.8173075 917
83 29 65300
83.5 -20.875 2171
85 29 65300
86 29 65300
130.10577 -18.586538 1933
88 29 65300
96.92308 -10.769231 1120
128.26923 -12.826923 1334
91 29 65300
268.5 -22.375 2327
93 29 65300
94 29 65300
95 29 65300
96 29 65300
68.817307 -4.0480771 421
98 29 65300
99 29 65300
177.88461 -8.8942308 925
167.39423 -7.9711537 829
214.71153 -9.7596149 1015
103 29 65300
104 29 65300
460.57693 -18.423077 1916
505.5 -19.442308 2022
107 29 65300
108 29 65300
109 29 65300
110 29 65300
224.15384 -7.2307692 752
407.69232 -12.740385 1325
113 29 65300
114 29 65300
115 29 65300
116 29 65300
117 29 65300
274.76923 -7.2307692 752
119 29 65300
120 29 65300
464.79807 -11.336538 1179
122 29 65300
123 29 65300
124 29 65300
125 29 65300
126 29 65300
127 29 65300
128 29 65300
129 29 65300
130 29 65300
131 29 65300
675.5 -12.990385 1351
133 29 65300
914.36536 -16.932692 1761
135 29 65300
136 29 65300
137 29 65300
138 29 65300
139 29 65300
140 29 65300
1538.4904 -25.221153 2623
142 29 65300
143 29 65300
144 29 65300
145 29 65300
250.03847 -3.7884614 394
147 29 65300
148 29 65300
149 29 65300
150 29 65300
151 29 65300
152 29 65300
153 29 65300
154 29 65300
155 29 65300
156 29 65300
157 29 65300
158 29 65300
159 29 65300
-765.38464 0 995
1 30 65300
-647.25 0 863
3 30 65300
-466.23077 0 638
5 30 65300
6 30 65300
7 30 65300
8 30 65300
9 30 65300
10 30 65300
11 30 65300
12 30 65300
13 30 65300
14 30 65300
15 30 65300
16 30 65300
17 30 65300
18 30 65300
-93.259613 0 159
-419.42307 0 727
21 30 65300
22 30 65300
-253.75961 0 463
24 30 65300
-303.02884 0 573
26 30 65300
27 30 65300
28 30 65300
29 30 65300
30 30 65300
31 30 65300
32 30 65300
33 30 65300
34 30 65300
35 30 65300
36 30 65300
37 30 65300
38 30 65300
39 30 65300
40 30 65300
41 30 65300
42 30 65300
43 30 65300
44 30 65300
45 30 65300
46 30 65300
47 30 65300
48 30 65300
49 30 65300
50 30 65300
51 30 65300
52 30 65300
53 30 65300
54 30 65300
55 30 65300
-401.53845 0 1740
57 30 65300
58 30 65300
59 30 65300
60 30 65300
61 30 65300
62 30 65300
63 30 65300
64 30 65300
65 30 65300
66 30 65300
67 30 65300
68 30 65300
69 30 65300
-195.48077 0 2033
71 30 65300
-57.46154 0 747
73 30 65300
74 30 65300
75 30 65300
-102.80769 0 2673
77 30 65300
78 30 65300
79 30 65300
0 0 1462
18.875 0 1963
82 30 65300
62.278847 0 2159
84 30 65300
85 30 65300
86 30 65300
87 30 65300
80.384613 0 1045
89 30 65300
90 30 65300
91 30 65300
92 30 65300
228.625 0 1829
94 30 65300
95 30 65300
380.30768 0 2472
97 30 65300
98 30 65300
99 30 65300
100 30 65300
216.46153 0 1072
102 30 65300
103 30 65300
104 30 65300
105 30 65300
414 0 1656
107 30 65300
108 30 65300
324.29807 0 1163
293.07693 0 1016
572.00964 0 1919
112 30 65300
113 30 65300
114 30 65300
115 30 65300
116 30 65300
117 30 65300
118 30 65300
119 30 65300
120 30 65300
121 30 65300
122 30 65300
123 30 65300
124 30 65300
639.08655 0 1477
126 30 65300
127 30 65300
128 30 65300
129 30 65300
130 30 65300
131 30 65300
132 30 65300
133 30 65300
134 30 65300
135 30 65300
136 30 65300
137 30 65300
138 30 65300
139 30 65300
140 30 65300
141 30 65300
142 30 65300
143 30 65300
144 30 65300
175.625 0 281
146 30 65300
711.23077 0 1104
148 30 65300
149 30 65300
150 30 65300
151 30 65300
152 30 65300
153 30 65300
154 30 65300
155 30 65300
156 30 65300
157 30 65300
158 30 65300
159 30 65300
-533.0769 6.6634617 693
-384.36539 4.8653846 506
-517.5 6.6346154 690
3 31 65300
-415.07693 5.4615383 568
5 31 65300
6 31 65300
7 31 65300
8 31 65300
9 31 65300
10 31 65300
11 31 65300
12 31 65300
13 31 65300
14 31 65300
15 31 65300
16 31 65300
17 31 65300
-172.28847 2.7788463 289
-235.78847 3.8653846 402
-129.80769 2.1634614 225
21 31 65300
22 31 65300
23 31 65300
24 31 65300
25 31 65300
-473.01923 8.7596149 911
27 31 65300
28 31 65300
29 31 65300
30 31 65300
31 31 65300
32 31 65300
33 31 65300
34 31 65300
35 31 65300
36 31 65300
37 31 65300
38 31 65300
39 31 65300
40 31 65300
41 31 65300
42 31 65300
43 31 65300
44 31 65300
45 31 65300
46 31 65300
47 31 65300
48 31 65300
49 31 65300
-493.26923 16.442308 1710
51 31 65300
-607.9231 21.711538 2258
53 31 65300
54 31 65300
55 31 65300
-539.53845 22.48077 2338
57 31 65300
58 31 65300
59 31 65300
60 31 65300
-370.68268 19.509615 2029
62 31 65300
63 31 65300
64 31 65300
-300.28845 20.01923 2082
66 31 65300
67 31 65300
68 31 65300
-172.40384 15.673077 1630
70 31 65300
-168.83653 18.759615 1951
72 31 65300
73 31 65300
74 31 65300
-76.346153 15.269231 1588
-89.346153 22.336538 2323
77 31 65300
78 31 65300
-23.548077 23.548077 2449
80 31 65300
81 31 65300
14.730769 7.3653846 766
83 31 65300
84 31 65300
85 31 65300
46.903847 7.8173075 813
70 10 1040
75.846153 9.4807692 986
89 31 65300
90 31 65300
91 31 65300
92 31 65300
93 31 65300
94 31 65300
95 31 65300
96 31 65300
97 31 65300
98 31 65300
99 31 65300
100 31 65300
101 31 65300
102 31 65300
103 31 65300
254.76923 10.615385 1104
105 31 65300
106 31 65300
107 31 65300
108 31 65300
448.38461 15.461538 1608
578.0769 19.26923 2004
111 31 65300
112 31 65300
113 31 65300
114 31 65300
115 31 65300
116 31 65300
117 31 65300
118 31 65300
119 31 65300
384.23077 9.6057692 999
121 31 65300
122 31 65300
123 31 65300
124 31 65300
125 31 65300
45.115383 0.98076922 102
127 31 65300
128 31 65300
129 31 65300
130 31 65300
924.375 18.125 1885
132 31 65300
133 31 65300
525.46155 9.7307692 1012
135 31 65300
136 31 65300
69.605766 1.2211539 127
524.78845 9.0480766 941
139 31 65300
140 31 65300
141 31 65300
142 31 65300
143 31 65300
144 31 65300
145 31 65300
1357.4423 20.567308 2139
468.35577 6.9903846 727
148 31 65300
1036.9904 15.028846 1563
150 31 65300
151 31 65300
496.38461 6.8942308 717
153 31 65300
154 31 65300
155 31 65300
156 31 65300
157 31 65300
158 31 65300
159 31 65300
-423.07693 10.576923 550
1 32 65300
