# .PCD v0.7 - Point Cloud Data file format
VERSION 0.7
FIELDS x y z
SIZE 4 4 4
TYPE F F F
COUNT 1 1 1
WIDTH 2531
HEIGHT 1
VIEWPOINT 0 0 0 1 0 0 0
POINTS 2531
DATA ascii
883.375 47.75 2483
656.23077 34.53846 1796
643.875 33.01923 1717
865 43.25 2249
901.60577 43.98077 2287
795.1731 37.865383 1969
939.7981 43.71154 2273
124 32 65300
125 32 65300
1034.1154 44.96154 2338
981.5769 41.76923 2172
1102.6154 45.942307 2389
977.1731 39.884617 2074
426.44232 17.057692 887
131 32 65300
132 32 65300
133 32 65300
866.59613 32.096153 1669
135 32 65300
136 32 65300
137 32 65300
1213.5385 41.846153 2176
1416 48 2496
140 32 65300
141 32 65300
142 32 65300
513.08655 16.288462 847
270.76923 8.4615383 440
145 32 65300
146 32 65300
909.00964 27.134615 1411
1593.4231 46.865383 2437
1550.5096 44.942307 2337
1324.6154 37.846153 1968
1336.7115 37.653847 1958
1370.0769 38.057693 1979
747.5481 20.48077 1065
1035.2885 27.98077 1455
155 32 65300
156 32 65300
157 32 65300
455.25 11.673077 607
289.41345 7.3269229 381
0 33 65300
1 33 65300
2 33 65300
3 33 65300
4 33 65300
5 33 65300
6 33 65300
7 33 65300
8 33 65300
9 33 65300
10 33 65300
11 33 65300
12 33 65300
13 33 65300
14 33 65300
15 33 65300
16 33 65300
17 33 65300
18 33 65300
19 33 65300
20 33 65300
21 33 65300
22 33 65300
23 33 65300
24 33 65300
25 33 65300
26 33 65300
27 33 65300
28 33 65300
29 33 65300
30 33 65300
-770.80768 47.192307 1636
-786.46155 49.153847 1704
-746.125 47.625 1651
-750.59613 48.951923 1697
-742.5 49.5 1716
-838.11536 57.14423 1981
-587.52887 40.990383 1421
-368.71155 26.336538 913
-496.73077 36.346153 1260
-358.07693 26.85577 931
-319.125 24.548077 851
-566.34613 44.71154 1550
43 33 65300
44 33 65300
-708.75 60.75 2106
-599.5769 52.903847 1834
-734.56732 66.778847 2315
-663.69232 62.221153 2157
49 33 65300
50 33 65300
-496.06732 51.317307 1779
-582.61536 62.423077 2164
-616.06732 68.45192 2373
-406.75 46.932693 1627
-612.98077 73.557693 2550
56 33 65300
-531.43268 69.317307 2403
58 33 65300
59 33 65300
60 33 65300
-139.94231 22.096153 766
-187.78847 31.298077 1085
63 33 65300
64 33 65300
65 33 65300
66 33 65300
67 33 65300
68 33 65300
-136.54808 37.240383 1291
70 33 65300
-70.182693 23.39423 811
-62.615383 23.48077 814
-60.03846 25.73077 892
-101.36539 50.682693 1757
-36.778847 22.067308 765
76 33 65300
-34.153847 34.153847 1184
-5.8269229 8.7403851 303
-8 24 832
0 30.490385 1057
16.817308 50.451923 1749
17.096153 25.64423 889
16.413462 16.413462 569
47.53846 35.653847 1236
85 33 65300
45.807693 22.903847 794
90.125 38.625 1339
153 57.375 1989
259.35577 86.45192 2997
240.86539 72.259613 2505
252.78847 68.942307 2390
201.80769 50.451923 1749
264.875 61.125 2119
302.48077 64.817307 2247
297.54807 59.509617 2063
291.07693 54.576923 1892
348.00961 61.41346 2129
388.21155 64.70192 2243
99 33 65300
100 33 65300
101 33 65300
102 33 65300
103 33 65300
104 33 65300
105 33 65300
106 33 65300
107 33 65300
108 33 65300
109 33 65300
110 33 65300
620 60 2080
700.61536 65.682693 2277
664.75964 60.432693 2095
825.48077 72.83654 2525
684.18268 58.64423 2033
766.73077 63.89423 2215
805.81732 65.33654 2265
784.11536 61.903847 2146
1015.5 78.115387 2708
998.0769 74.855766 2595
784.51923 57.403847 1990
920.76923 65.769234 2280
883.15387 61.615383 2136
124 33 65300
996.9231 66.46154 2304
999.1731 65.16346 2259
1102.6923 70.384613 2440
833.0769 52.067307 1805
742.06732 45.432693 1575
372.59616 22.35577 775
438.40384 25.788462 894
504 29.076923 1008
247.67308 14.019231 486
134 33 65300
135 33 65300
136 33 65300
1064.3654 56.01923 1942
1187.3269 61.41346 2129
1051.2212 53.451923 1853
1197.1154 59.85577 2075
141 33 65300
481.69232 23.307692 808
401.625 19.125 663
382.15384 17.913462 621
591.25 27.288462 946
542.59613 24.663462 855
1098.4135 49.182693 1705
1228.5769 54.201923 1879
1401.2307 60.923077 2112
1354.2307 58.03846 2012
1439.1154 60.807693 2108
1393.6154 58.067307 2013
862.66345 35.451923 1229
154 33 65300
786.77887 31.471153 1091
156 33 65300
157 33 65300
158 33 65300
159 33 65300
0 34 65300
1 34 65300
2 34 65300
3 34 65300
4 34 65300
5 34 65300
6 34 65300
7 34 65300
8 34 65300
9 34 65300
10 34 65300
11 34 65300
12 34 65300
13 34 65300
14 34 65300
15 34 65300
16 34 65300
17 34 65300
18 34 65300
19 34 65300
20 34 65300
21 34 65300
22 34 65300
23 34 65300
24 34 65300
25 34 65300
26 34 65300
27 34 65300
28 34 65300
29 34 65300
30 34 65300
31 34 65300
-1150.1538 95.846153 2492
-853.68268 72.653847 1889
-913.80768 79.46154 2066
-965.33655 85.807693 2231
-915.96155 83.269234 2165
-920.36536 85.615387 2226
38 34 65300
39 34 65300
-327.30768 32.73077 851
-363.75 37.307693 970
-308.38461 32.46154 844
43 34 65300
44 34 65300
-527.01923 60.23077 1566
-632.59613 74.42308 1935
-632.39423 76.653847 1993
48 34 65300
49 34 65300
-454.61539 60.615383 1576
-640.23077 88.307693 2296
-520.15387 74.307693 1932
-559.73077 82.92308 2156
-583.25 89.730766 2333
-443.02884 70.884613 1843
56 34 65300
-587.38464 102.15385 2656
-453.96155 82.53846 2146
-420.80768 80.153847 2084
60 34 65300
-201.32692 42.384617 1102
-179.13461 39.807693 1035
63 34 65300
-105.84615 26.461538 688
65 34 65300
66 34 65300
67 34 65300
68 34 65300
-119.94231 43.615383 1134
-165.28847 66.115387 1719
-40.326923 17.923077 466
-83.92308 41.96154 1091
-53.307693 30.461538 792
-27.057692 18.038462 469
-27.596153 22.076923 574
-39.653847 39.653847 1031
-29.048077 38.73077 1007
-22.538462 45.076923 1172
-9.375 37.5 975
0 35.53846 924
81 34 65300
23.26923 46.53846 1210
52.557693 70.07692 1822
57.26923 57.26923 1489
29.663462 23.73077 617
6.4615383 4.3076925 112
72.759613 41.576923 1081
163.76923 81.884613 2129
201.46153 89.53846 2328
150.28847 60.115383 1563
229.09616 83.307693 2166
253.84616 84.615387 2200
212.875 65.5 1703
349.32693 99.807693 2595
363.31732 96.884613 2519
261.53845 65.384613 1700
366.15384 86.153847 2240
375.57693 83.46154 2170
99 34 65300
100 34 65300
101 34 65300
102 34 65300
103 34 65300
104 34 65300
105 34 65300
106 34 65300
107 34 65300
108 34 65300
109 34 65300
110 34 65300
549.35577 70.884613 1843
642.15387 80.269234 2087
584.48077 70.846153 1842
703.86536 82.807693 2153
615.86536 70.384613 1830
839.76923 93.307693 2426
819.69232 88.615387 2304
862.30768 90.769234 2360
851.625 87.346153 2271
983.84613 98.384613 2558
747.46155 72.92308 1896
122 34 65300
914.5769 85.07692 2212
124 34 65300
125 34 65300
1151.3269 100.11539 2603
1095.4615 93.230766 2424
978.46155 81.53846 2120
667.625 54.5 1417
587.98077 47.03846 1223
418.29807 32.807693 853
555.5 42.73077 1111
133 34 65300
569.59613 42.192307 1097
135 34 65300
136 34 65300
1291.8173 90.653847 2357
1237.5193 85.346153 2219
1022.8558 69.346153 1803
973.26923 64.884613 1687
141 34 65300
922.84613 59.53846 1548
311.97116 19.807692 515
486.76923 30.423077 791
145 34 65300
1097.8846 66.53846 1730
974.0769 58.153847 1512
1375.0385 80.884613 2103
1475.5385 85.53846 2224
1223.6538 69.92308 1818
1448.6731 81.615387 2122
1385.3077 76.96154 2001
1422.7981 77.96154 2027
254.73077 13.769231 358
155 34 65300
156 34 65300
157 34 65300
144 7.3846154 192
159 34 65300
0 35 65300
1 35 65300
2 35 65300
3 35 65300
4 35 65300
5 35 65300
6 35 65300
7 35 65300
8 35 65300
9 35 65300
10 35 65300
11 35 65300
12 35 65300
13 35 65300
14 35 65300
15 35 65300
16 35 65300
17 35 65300
18 35 65300
19 35 65300
20 35 65300
21 35 65300
22 35 65300
23 35 65300
24 35 65300
25 35 65300
26 35 65300
27 35 65300
28 35 65300
29 35 65300
30 35 65300
31 35 65300
-702.46155 73.17308 1522
-978.41345 104.08654 2165
-826.6731 89.855766 1869
-703.55768 78.17308 1626
-862.65387 98.028847 2039
-764.0769 88.846153 1848
-767.71155 91.394234 1901
-201.45192 24.567308 511
-295.76923 36.971153 769
41 35 65300
-188.53847 24.807692 516
43 35 65300
44 35 65300
-720.86536 102.98077 2142
-567.53845 83.46154 1736
-627.9519 95.144234 1979
48 35 65300
49 35 65300
-461.82693 76.971153 1601
-578.60577 99.759613 2075
-752.23077 134.32692 2794
-763.26923 141.34616 2940
-525.25 101.00961 2101
-528.36536 105.67308 2198
56 35 65300
-479.46155 104.23077 2168
-502.19232 114.13461 2374
59 35 65300
60 35 65300
-389.86539 102.59615 2134
-166.15384 46.153847 960
-191.41347 56.298077 1171
-78 24.375 507
65 35 65300
66 35 65300
67 35 65300
68 35 65300
-178.64423 81.20192 1689
-35.48077 17.740385 369
-87.490387 48.60577 1011
-31.153847 19.471153 405
-53.778847 38.41346 799
-27.923077 23.26923 484
-53.846153 53.846153 1120
-19.615385 24.51923 510
-27.634615 46.057693 958
-3.5 8.75 182
-17.336538 86.682693 1803
0 23.26923 484
9.9134617 49.567307 1031
14.730769 36.826923 766
24.836538 41.39423 861
61.23077 76.53846 1592
29.951923 29.951923 623
13.788462 11.490385 239
87 35 65300
165.53847 103.46154 2152
166.06731 92.259613 1919
196.63461 98.317307 2045
224.01923 101.82692 2118
234.34616 97.644234 2031
265.875 102.25961 2127
249.84616 89.230766 1856
348.02884 116.00961 2413
304 95 1976
355.20193 104.47115 2173
341.65384 94.903847 1974
363.92307 95.769234 1992
307.11539 76.778847 1597
101 35 65300
102 35 65300
103 35 65300
104 35 65300
105 35 65300
106 35 65300
107 35 65300
108 35 65300
109 35 65300
110 35 65300
523.4231 84.42308 1756
673.84613 105.28846 2190
763.75964 115.72115 2407
886.61536 130.38461 2712
686.2019 98.028847 2039
693 96.25 2002
738.22113 99.759613 2075
875.8269 115.24039 2397
747.75 95.865387 1994
1001.1539 125.14423 2603
629.98077 76.82692 1598
122 35 65300
123 35 65300
124 35 65300
125 35 65300
934.59613 101.58654 2113
1007.3365 107.16346 2229
852 88.75 1846
679.875 69.375 1443
302.40384 30.240385 629
376.61539 36.923077 768
175.5 16.875 351
133 35 65300
980.30768 90.769234 1888
135 35 65300
136 35 65300
137 35 65300
1177.2885 101.49039 2111
1351.3269 114.51923 2382
1047.6923 87.307693 1816
141 35 65300
831.63464 67.067307 1395
611.22113 48.509617 1009
380.30768 29.711538 618
145 35 65300
1155 87.5 1820
1571.9231 117.30769 2440
1475.7307 108.50961 2257
1305.0288 94.567307 1967
1080.9615 77.21154 1606
1098.4519 77.355766 1609
705.46155 48.990383 1019
289.19232 19.807692 412
140.88461 9.5192308 198
155 35 65300
369.03845 24.278847 505
573.05768 37.21154 774
116.25 7.4519229 155
304.60577 19.278847 401
0 36 65300
1 36 65300
2 36 65300
3 36 65300
4 36 65300
5 36 65300
6 36 65300
7 36 65300
8 36 65300
9 36 65300
10 36 65300
11 36 65300
12 36 65300
13 36 65300
14 36 65300
15 36 65300
16 36 65300
17 36 65300
18 36 65300
19 36 65300
20 36 65300
21 36 65300
22 36 65300
23 36 65300
24 36 65300
25 36 65300
26 36 65300
-70.32692 7.9615383 138
28 36 65300
-639.9519 75.28846 1305
-122.59615 14.711538 255
31 36 65300
-625.38464 78.17308 1355
-881.25 112.5 1950
-905.40387 118.09615 2047
-893.50964 119.13461 2065
-796.65387 108.63461 1883
-776.89423 108.40385 1879
-741.46155 105.92308 1836
-297.64423 43.557693 755
-514.61536 77.192307 1338
-306.75 47.192307 818
-380.36539 60.057693 1041
43 36 65300
44 36 65300
-553.94232 94.96154 1646
-622.46155 109.84615 1904
-453.43268 82.442307 1429
-641.23077 120.23077 2084
49 36 65300
50 36 65300
-623.22113 128.94231 2235
-553 118.5 2054
-702.77887 156.17308 2707
-496 114.46154 1984
-405.04807 97.21154 1685
56 36 65300
-561.9519 146.59616 2541
-447.40384 122.01923 2115
-202.73077 57.923077 1004
60 36 65300
-317.15384 100.15385 1736
-169.09616 56.365383 977
-79.769234 28.153847 488
64 36 65300
65 36 65300
66 36 65300
67 36 65300
68 36 65300
-75.83654 41.365383 717
-171.05769 102.63461 1779
71 36 65300
-72.153847 54.115383 938
-81.980766 70.269234 1218
74 36 65300
-47.98077 57.576923 998
-34.96154 52.442307 909
-25.73077 51.46154 892
-10.038462 30.115385 522
-8.8653851 53.192307 922
0 72.17308 1251
9.5480766 57.28846 993
21.807692 65.42308 1134
27.259615 54.51923 945
29.5 44.25 767
67.307693 80.769234 1400
61.326923 61.326923 1063
35.875 30.75 533
130.15384 97.615387 1692
169.78847 113.19231 1962
161.05769 96.634613 1675
258.60577 141.05769 2445
260.19232 130.09616 2255
226 104.30769 1808
339.36539 145.44231 2521
282.54807 113.01923 1959
328.15384 123.05769 2133
97 36 65300
98 36 65300
99 36 65300
100 36 65300
101 36 65300
102 36 65300
103 36 65300
104 36 65300
105 36 65300
106 36 65300
107 36 65300
108 36 65300
109 36 65300
110 36 65300
753.83655 145.90384 2529
621.53845 116.53846 2020
751.38464 136.61539 2368
611.34613 107.88461 1870
627.30768 107.53846 1864
703.03845 117.17308 2031
712.25 115.5 2002
887.51923 140.13461 2429
803.25 123.57692 2142
1008.8461 151.32692 2623
1038.7981 152.01923 2635
794.76923 113.53846 1968
123 36 65300
124 36 65300
125 36 65300
1202.6346 156.86539 2719
1276.2307 162.92308 2824
699.69232 87.46154 1516
722.75 88.5 1534
363.46155 43.615383 756
513.43268 60.403847 1047
329 37.96154 658
569.24036 64.442307 1117
522.34613 58.03846 1006
135 36 65300
1197 128.25 2223
1389.9231 146.30769 2536
982.09613 101.59615 1761
1191.3462 121.15385 2100
1053.4615 105.34615 1826
141 36 65300
142 36 65300
143 36 65300
342.76923 32.134617 557
145 36 65300
1524.9807 138.63461 2403
1512.0096 135.40384 2347
895.76923 79.03846 1370
1167.0288 101.48077 1759
961.15387 82.384613 1428
1250.6923 105.69231 1832
751.84613 62.653847 1086
259.71155 21.346153 370
154 36 65300
155 36 65300
156 36 65300
443.49039 34.557693 599
265.5 20.423077 354
159 36 65300
0 37 65300
1 37 65300
2 37 65300
3 37 65300
4 37 65300
5 37 65300
6 37 65300
7 37 65300
8 37 65300
9 37 65300
10 37 65300
11 37 65300
12 37 65300
13 37 65300
14 37 65300
15 37 65300
16 37 65300
17 37 65300
18 37 65300
19 37 65300
20 37 65300
21 37 65300
22 37 65300
-289.38461 35.53846 528
24 37 65300
25 37 65300
26 37 65300
27 37 65300
28 37 65300
-151.03847 20.73077 308
-525 73.5 1092
31 37 65300
-275.53845 40.182693 597
-577.10577 85.95192 1277
-750.15387 114.15385 1696
-748.99036 116.50961 1731
-937.53845 149.15384 2216
-820.72113 133.60577 1985
-776.59613 129.43269 1923
-765.2019 130.64423 1941
-428.46155 74.980766 1114
-612.75 109.98077 1634
-347.48077 64.009613 951
43 37 65300
-643.15387 125.05769 1858
-813.0769 162.61539 2416
-676.40387 139.25961 2069
-668.88464 141.88461 2108
-330.15384 72.221153 1073
49 37 65300
-650.48077 151.77884 2255
-673.41345 162.54808 2415
-765.69232 191.42308 2844
-525.46155 136.23077 2024
-484 130.30769 1936
55 37 65300
56 37 65300
57 37 65300
-449.09616 142.89423 2123
-387.69232 129.23077 1920
60 37 65300
-195.84616 72.153847 1072
-174.28847 67.778847 1007
-166.89423 68.721153 1021
-241.69231 105.74039 1571
65 37 65300
66 37 65300
67 37 65300
68 37 65300
-145.11539 92.346153 1372
-108.07692 75.653847 1124
-99 77 1144
-62.692307 54.85577 815
-49.807693 49.807693 740
-42.865383 50.009617 743
-58.41346 81.778847 1215
-51.307693 89.78846 1334
-36.778847 85.817307 1275
-14.403846 50.41346 749
-12.875 90.125 1339
0 56.740383 843
12.490385 87.432693 1299
19.5 68.25 1014
18 42 624
42.423077 74.240387 1103
49.423077 69.192307 1028
75.17308 87.70192 1303
87 37 65300
88 37 65300
111.80769 86.96154 1292
201.15384 140.80769 2092
229.41347 145.99039 2169
276.46155 161.26923 2396
320.125 172.375 2561
281.21155 140.60577 2089
355.09616 165.71153 2462
373.38461 163.35577 2427
529.61536 218.07692 3240
327.80768 127.48077 1894
99 37 65300
100 37 65300
101 37 65300
102 37 65300
103 37 65300
104 37 65300
545.43268 152.72116 2269
647.5 174.32692 2590
589.84613 152.92308 2272
434.53845 108.63461 1614
613.46155 148.07692 2200
606.05768 141.41347 2101
813.75 183.75 2730
636 139.125 2067
849.75 180.25 2678
827.76923 170.42308 2532
617.88464 123.57692 1836
784.38464 152.51923 2266
765.61536 144.84616 2152
717.25 132.125 1963
621.375 111.52885 1657
897.69232 157.09616 2334
899.24036 153.52884 2281
122 37 65300
123 37 65300
124 37 65300
1004.2789 156.22116 2321
1005.8077 153.05769 2274
1056.1443 157.29808 2337
1203.2307 175.47116 2607
554.5481 79.221153 1177
130 37 65300
317.27884 43.548077 647
132 37 65300
133 37 65300
349.96155 45.365383 674
135 37 65300
1013.3846 126.67308 1882
137 37 65300
138 37 65300
1111.9231 131.92308 1960
140 37 65300
141 37 65300
811.96155 91.67308 1362
173.85577 19.317308 287
513.23077 56.134617 834
1273.75 137.17308 2038
1281.2885 135.89423 2019
1278.1538 133.53847 1984
1374.3846 141.48077 2102
1487.4807 150.90384 2242
1009.6154 100.96154 1500
1179.0096 116.24039 1727
468 45.5 676
153 37 65300
154 37 65300
155 37 65300
901.03845 82.990387 1233
157 37 65300
158 37 65300
159 37 65300
0 38 65300
1 38 65300
2 38 65300
3 38 65300
4 38 65300
5 38 65300
6 38 65300
7 38 65300
8 38 65300
9 38 65300
10 38 65300
11 38 65300
12 38 65300
13 38 65300
14 38 65300
15 38 65300
16 38 65300
17 38 65300
18 38 65300
19 38 65300
20 38 65300
21 38 65300
22 38 65300
23 38 65300
24 38 65300
25 38 65300
26 38 65300
27 38 65300
28 38 65300
-239.30769 37.53846 488
-109.61539 17.538462 228
-66.903847 10.923077 142
32 38 65300
-441.52884 75.153847 977
-692.65387 120.46154 1566
-871.00964 154.84616 2013
-790.73077 143.76923 1869
-972.46155 180.92308 2352
-1056.8654 201.30769 2617
-927.23077 180.92308 2352
40 38 65300
-571.5 117.23077 1524
-296.32693 62.384617 811
43 38 65300
44 38 65300
-633.36536 144.76923 1882
-518.5 122 1586
-644.76923 156.30769 2032
-693.23077 173.30769 2253
49 38 65300
50 38 65300
-466.23077 128.61539 1672
-579.9231 165.69231 2154
-610.35577 180.84616 2351
-489.75 150.69231 1959
-631.49036 202.07692 2627
56 38 65300
57 38 65300
-408.26923 148.46153 1930
-216.25961 82.384613 1071
60 38 65300
61 38 65300
-185.36539 82.384613 1071
-118.83654 55.923077 727
-197.38461 98.692307 1283
65 38 65300
66 38 65300
67 38 65300
68 38 65300
69 38 65300
-91.057693 72.846153 947
-78.317307 69.615387 905
-94.46154 94.46154 1228
73 38 65300
-40.384617 53.846153 700
75 38 65300
-35.692307 71.384613 928
-31.5 84 1092
-17.01923 68.07692 885
-7.6634617 61.307693 797
0 67.692307 880
3.0673077 24.538462 319
20.326923 81.307693 1057
21.807692 58.153847 756
38.076923 76.153847 990
85 38 65300
52.96154 70.615387 918
52.365383 59.846153 778
54.53846 54.53846 709
89 38 65300
139.90384 111.92308 1455
181.39423 131.92308 1715
195.34616 130.23077 1693
151.5 93.230766 1212
283.63461 162.07692 2107
362.88461 193.53847 2516
96 38 65300
266.93268 125.61539 1633
453.63461 201.61539 2621
99 38 65300
100 38 65300
101 38 65300
102 38 65300
406.48077 141.38461 1838
104 38 65300
463.46155 148.30769 1928
580.5 178.61539 2322
480.02884 142.23077 1849
600.38464 171.53847 2230
612.06732 168.84616 2195
591.34613 157.69231 2050
646.8269 166.92308 2170
502.46155 125.61539 1633
113 38 65300
656.46155 154.46153 2008
634.71155 145.07692 1886
737.65387 163.92308 2131
770.24036 166.53847 2165
735.88464 154.92308 2014
1088.25 223.23077 2902
959.23077 191.84616 2494
121 38 65300
122 38 65300
123 38 65300
124 38 65300
125 38 65300
1100.9038 191.46153 2489
998.75 170 2210
1049.5385 174.92308 2274
473.98077 77.384613 1006
130 38 65300
131 38 65300
495 76.153847 990
238.5 36 468
134 38 65300
135 38 65300
1115.1538 159.30769 2071
137 38 65300
138 38 65300
139 38 65300
140 38 65300
141 38 65300
850.71155 109.76923 1427
143 38 65300
744.61536 93.07692 1210
1420.625 174.84616 2273
1318.0962 159.76923 2077
1153.1731 137.69231 1790
1314.8846 154.69231 2011
149 38 65300
150 38 65300
1010.3846 113.84615 1480
390.46155 43.384617 564
549.60577 60.23077 783
664.5769 71.846153 934
512.01923 54.615383 710
589 62 806
695.96155 72.307693 940
158 38 65300
985.22113 99.769234 1297
0 39 65300
1 39 65300
2 39 65300
3 39 65300
4 39 65300
5 39 65300
6 39 65300
7 39 65300
8 39 65300
9 39 65300
10 39 65300
11 39 65300
12 39 65300
13 39 65300
14 39 65300
15 39 65300
16 39 65300
17 39 65300
18 39 65300
19 39 65300
20 39 65300
21 39 65300
-97.03846 15.057693 174
-365.56732 57.721153 667
24 39 65300
25 39 65300
26 39 65300
-268.05768 45.51923 526
28 39 65300
29 39 65300
30 39 65300
-419.79807 77.105766 891
32 39 65300
-268.44232 51.403847 594
-720.0769 140.88461 1628
-977.4519 195.49039 2259
-784.80768 160.52884 1855
-641.27887 134.22116 1551
-803.65387 172.21153 1990
-805.80768 176.88461 2044
-682.69232 153.60577 1775
-480 110.76923 1280
-437.36539 103.58654 1197
43 39 65300
44 39 65300
-701.68268 180.43269 2085
-625.0769 165.46153 1912
-662.22113 180.60577 2087
-609.84613 171.51923 1982
-431.61539 125.30769 1448
50 39 65300
51 39 65300
-604.4231 194.27884 2245
-566.74036 188.91347 2183
-323.25 111.89423 1293
-396.15384 142.61539 1648
56 39 65300
57 39 65300
-522.0769 213.57692 2468
-168.80769 72.346153 836
60 39 65300
-271.48077 128.59616 1486
-356.53845 178.26923 2060
-103.14423 54.60577 631
-178.92308 100.64423 1163
65 39 65300
-63.942307 41.10577 475
67 39 65530
68 39 65300
-74.03846 60.576923 700
-67.115387 60.403847 698
-81.865387 81.865387 946
-62.153847 69.92308 808
-95.778847 123.14423 1423
-79.32692 118.99039 1375
-44.23077 79.615387 920
-30.961538 69.66346 805
-28.5 85.5 988
-17.442308 78.490387 907
-6.7115383 60.403847 698
0 119.85577 1385
2.625 23.625 273
22.73077 102.28846 1182
13.990385 41.971153 485
19.153847 43.096153 498
16.875 30.375 351
49.03846 73.557693 850
83.79808 107.74039 1245
133.84616 150.57692 1740
89 39 65300
99.134613 89.221153 1031
91 39 65300
128.76923 96.57692 1116
183 126.69231 1464
309.88461 199.21153 2302
95 39 65300
96 39 65300
97 39 65300
98 39 65300
99 39 65300
100 39 65300
431.10577 184.75961 2135
555.9231 227.42308 2628
516.61536 202.15384 2336
437.53845 164.07692 1896
613.94232 221.01923 2554
459.75 159.14423 1839
571.41345 190.47116 2201
503.46155 161.82692 1870
721.93268 224.04808 2589
503.94232 151.18269 1747
649.21155 188.48077 2178
596 167.625 1937
602.25 164.25 1898
716.28845 189.60577 2191
638.75 164.25 1898
116 39 65300
954.52887 232.18269 2683
832.71155 197.22116 2279
119 39 65300
120 39 65300
121 39 65300
122 39 65300
123 39 65300
124 39 65300
957.98077 191.59616 2214
981.03845 191.94231 2218
1197.1443 229.24039 2649
1061.5385 199.03847 2300
946.0769 173.76923 2008
167.30769 30.115385 348
131 39 65300
132 39 65300
421.45193 71.567307 827
521.8269 86.971153 1005
135 39 65300
1134.5385 182.33653 2107
137 39 65300
138 39 65300
139 39 65300
140 39 65300
141 39 65300
862.63464 125.22115 1447
849.28845 121.32692 1402
1022.1539 143.74039 1661
1355 187.61539 2168
1120.7307 152.82692 1766
1153.1731 154.90384 1790
1017.3846 134.65384 1556
1241.3365 161.91347 1871
926.8269 119.16346 1377
422.58655 53.567307 619
152 39 65300
634.53845 78.230766 904
154 39 65300
155 39 65300
156 39 65300
157 39 65300
750.75 86.625 1001
350.94232 39.98077 462
0 40 65300
1 40 65300
2 40 65300
3 40 65300
4 40 65300
5 40 65300
6 40 65300
7 40 65300
8 40 65300
9 40 65300
10 40 65300
11 40 65300
12 40 65300
13 40 65300
14 40 65300
15 40 65300
16 40 65300
17 40 65300
18 40 65300
19 40 65300
20 40 65300
21 40 65300
22 40 65300
23 40 65300
24 40 65300
25 40 65300
26 40 65300
27 40 65300
28 40 65300
-231.95192 45.48077 473
30 40 65300
31 40 65300
32 40 65300
-523.77887 111.44231 1159
-149.5 32.5 338
-663.75 147.5 1534
-933.73077 212.21153 2207
-711.56732 165.48077 1721
-1012.8461 241.15384 2508
-669.40387 163.26923 1698
-796.15387 199.03847 2070
-725.25 185.96153 1934
42 40 65300
43 40 65300
44 40 65300
-547.21155 156.34616 1626
-579.30768 170.38461 1772
-529.58655 160.48077 1669
-795.38464 248.55769 2585
-647.4231 208.84616 2172
50 40 65300
51 40 65300
52 40 65300
53 40 65300
-482.5 185.57692 1930
-309.85577 123.94231 1289
56 40 65300
57 40 65300
-353.48077 160.67308 1671
59 40 65300
60 40 65300
-157.84616 83.07692 864
-78.057693 43.365383 451
63 40 65300
-161.69231 101.05769 1051
-149.27884 99.519234 1035
-89.78846 64.134613 667
67 40 65300
-118.5 98.75 1027
-122.05769 110.96154 1154
-88.46154 88.46154 920
71 40 65300
-137.76923 172.21153 1791
-82.25 117.5 1222
-60.865383 101.44231 1055
-41.682693 83.365387 867
-38.423077 96.057693 999
-30.807692 102.69231 1068
-19.76923 98.846153 1028
79 40 65300
0 88.75 923
13.432693 134.32692 1397
13.942307 69.71154 725
28.64423 95.480766 993
39.115383 97.78846 1017
85 40 65300
78.230766 130.38461 1356
56.26923 80.384613 836
38.53846 48.173077 501
88.96154 98.846153 1028
66.92308 66.92308 696
69.278847 62.98077 655
137.65384 114.71154 1193
93 40 65300
194.11539 138.65384 1442
95 40 65300
96 40 65300
97 40 65300
98 40 65300
99 40 65300
100 40 65300
414.34616 197.30769 2052
426.25 193.75 2015
459.77884 199.90384 2079
518.30768 215.96153 2246
475.72116 190.28847 1979
490.5 188.65384 1962
477.69232 176.92308 1840
642.65387 229.51923 2387
612.90387 211.34616 2198
650.19232 216.73077 2254
686.1731 221.34616 2302
804.9231 251.53847 2616
576.5481 174.71153 1817
309.59616 91.057693 947
312.98077 89.42308 930
392.53845 109.03846 1134
117 40 65300
118 40 65300
769.125 197.21153 2051
120 40 65300
121 40 65300
122 40 65300
123 40 65300
124 40 65300
945.86536 210.19231 2186
980.59613 213.17308 2217
127 40 65300
128 40 65300
129 40 65300
130 40 65300
449.68268 88.17308 917
132 40 65300
406.67307 76.730766 798
134 40 65300
135 40 65300
136 40 65300
1331.2788 233.55769 2429
138 40 65300
139 40 65300
140 40 65300
141 40 65300
142 40 65300
1212.1443 192.40384 2001
1635.6923 255.57692 2658
1538.75 236.73077 2462
1320 200 2080
1079.0865 161.05769 1675
1117.4231 164.32692 1709
972.63464 140.96153 1466
891.8269 127.40385 1325
151 40 65300
810.69232 112.59615 1171
610.6731 83.653847 870
154 40 65300
155 40 65300
156 40 65300
459.77884 59.71154 621
412.5 52.884617 550
159 40 65300
0 41 65300
1 41 65300
2 41 65300
3 41 65300
4 41 65300
5 41 65300
6 41 65300
7 41 65300
8 41 65300
9 41 65300
10 41 65300
11 41 65300
12 41 65300
13 41 65300
14 41 65300
15 41 65300
16 41 65300
-293.79807 51.298077 485
18 41 65300
19 41 65300
20 41 65300
21 41 65300
22 41 65300
23 41 65300
24 41 65300
25 41 65300
26 41 65300
-330.74039 68.644234 649
-42.5 8.9903851 85
29 41 65300
-492.30768 108.30769 1024
31 41 65300
32 41 65300
-290.58655 68.009613 643
-136.23077 32.576923 308
35 41 65300
-776.34613 194.08653 1835
-848.00964 216.93269 2051
-814.15387 213.23077 2016
-895.2981 240.20192 2271
-939.61536 258.39423 2443
-805.875 227.29808 2149
-722.73077 209.21153 1978
43 41 65300
44 41 65300
-528.02887 165.95192 1569
-566.88464 183.40384 1734
-647.625 215.875 2041
-561.84613 193.13461 1826
49 41 65300
50 41 65300
-327.64423 124.27885 1175
52 41 65300
-414.86539 169.01923 1598
-413 174.73077 1652
55 41 65300
-88.384613 40.509617 383
57 41 65300
-235.23077 117.61539 1112
-394.96155 206.88461 1956
60 41 65300
-202.78847 117.40385 1110
-201.28847 123.00961 1163
-289.65384 187.42308 1772
-114 78.375 741
-55.240383 40.509617 383
-155.61539 122.26923 1156
-130 110 1040
-139.73077 128.08653 1211
-116.24039 116.24039 1099
-93.846153 103.23077 976
-121.84615 148.92308 1408
-80.230766 110.31731 1043
-24.634615 38.71154 366
-84.230766 154.42308 1460
-23.221153 51.08654 483
-39.384617 108.30769 1024
-18.692308 68.53846 648
-17.038462 93.71154 886
-7.2307692 79.53846 752
0 81.019234 766
8.2211542 90.432693 855
19.326923 106.29808 1005
27.692308 101.53846 960
46.846153 128.82692 1218
54.615383 120.15385 1136
43.26923 79.32692 750
113.48077 178.32692 1686
82.769234 113.80769 1076
3.8076923 4.6538463 44
85.384613 93.92308 888
109.57692 109.57692 1036
181.84616 166.69231 1576
98.625 83.45192 789
135.42308 106.40385 1006
95 41 65300
96 41 65300
97 41 65300
98 41 65300
367.21155 212.59616 2010
100 41 65300
536.30768 280.92307 2656
555.5 277.75 2626
525.68268 251.41347 2377
464.30768 212.80769 2012
621.39423 273.41345 2585
512.75 216.93269 2051
567 231 2184
712.38464 279.86539 2646
655.00964 248.45192 2349
598.84613 219.57692 2076
591.98077 210.05769 1986
615.0769 211.43269 1999
561.63464 187.21153 1770
496.59616 160.66347 1519
552.25964 173.56731 1641
116 41 65300
117 41 65300
118 41 65300
119 41 65300
120 41 65300
121 41 65300
122 41 65300
123 41 65300
124 41 65300
936.77887 228.99039 2165
1074.8077 257.01923 2430
889.83655 208.25961 1969
128 41 65300
129 41 65300
390.86539 85.990387 813
351.11539 75.730766 716
597 126.28846 1194
133 41 65300
575.30768 117.19231 1108
135 41 65300
136 41 65300
137 41 65300
1309.4615 248.34616 2348
139 41 65300
140 41 65300
141 41 65300
142 41 65300
1225.4712 213.97116 2023
1203.0769 206.77884 1955
1178.125 199.375 1885
1225.4423 204.24039 1931
1515.2307 248.76923 2352
1365.8846 220.95192 2089
967.3269 154.21153 1458
131.92308 20.73077 196
151 41 65300
760.15387 116.13461 1098
153 41 65300
154 41 65300
155 41 65300
515.9231 74.67308 706
157 41 65300
570 80.384613 760
413.99039 57.64423 545
0 42 65300
1 42 65300
2 42 65300
3 42 65300
4 42 65300
5 42 65300
6 42 65300
7 42 65300
8 42 65300
9 42 65300
10 42 65300
11 42 65300
12 42 65300
13 42 65300
14 42 65300
15 42 65300
16 42 65300
17 42 65300
18 42 65300
19 42 65300
20 42 65300
21 42 65300
22 42 65300
23 42 65300
24 42 65300
25 42 65300
26 42 65300
27 42 65300
28 42 65300
29 42 65300
30 42 65300
-485.28845 118.84615 1030
32 42 65300
-410.79807 104.88461 909
34 42 65300
-455.19232 121.38461 1052
-599.0769 163.38461 1416
-763.25 213 1846
-869.48077 248.42308 2153
-795.16345 232.73077 2017
-701.15387 210.34616 1823
-664.875 204.57692 1773
-497.65384 157.15384 1362
43 42 65300
44 42 65300
-551.25 189 1638
-616.25 217.5 1885
-526.09613 191.30769 1658
-528.30768 198.11539 1717
-461.42307 178.61539 1548
50 42 65300
-431.65384 178.61539 1548
-252.80769 108.34615 939
-293.625 130.5 1131
-530 244.61539 2120
-203.125 97.5 845
56 42 65300
-473.04807 246.80769 2139
58 42 65300
-318.02884 181.73077 1575
60 42 65300
-187.44231 118.38461 1026
-126.17308 84.115387 729
-109.51923 77.307693 670
-50.46154 37.846153 328
65 42 65300
-67.03846 57.46154 498
-128.125 118.26923 1025
-123.34615 123.34615 1069
-151.14423 164.88461 1429
-25.384615 30.461538 264
71 42 65300
-97.53846 146.30769 1268
-105.33654 180.57692 1565
-36.576923 73.153847 634
75 42 65300
-38.76923 116.30769 1008
-38.221153 152.88461 1325
-18.153847 108.92308 944
79 42 65300
0 150.57692 1305
5.4134617 64.96154 563
18.98077 113.88461 987
83 42 65300
24.307692 72.92308 632
85 42 65300
52.384617 104.76923 908
87 42 65300
95.769234 143.65384 1245
89 42 65300
63.173077 75.807693 657
91 42 65300
55.615383 55.615383 482
93 42 65300
251.46153 215.53847 1868
95 42 65300
96 42 65300
97 42 65300
98 42 65300
321.72116 203.19231 1761
409.61539 245.76923 2130
534.69232 305.53845 2648
406.36539 221.65384 1921
424.83655 221.65384 1921
532.15387 266.07693 2306
627.40387 301.15384 2610
570.5 263.30768 2282
611.65387 271.84616 2356
635.38464 272.30768 2360
657.7981 272.19232 2359
750.28845 300.11539 2601
675.14423 261.34616 2265
534.46155 200.42308 1737
651.75 237 2054
344.25 121.5 1053
354.71155 121.61539 1054
195.57692 65.192307 565
117 42 65300
118 42 65300
119 42 65300
120 42 65300
121 42 65300
122 42 65300
123 42 65300
124 42 65300
915.14423 244.03847 2115
1234.0385 321.92307 2790
127 42 65300
128 42 65300
129 42 65300
1018.75 244.5 2119
740.48077 174.23077 1510
560.5 129.34616 1121
133 42 65300
134 42 65300
135 42 65300
136 42 65300
137 42 65300
954.76923 197.53847 1712
139 42 65300
140 42 65300
141 42 65300
1222.7115 236.65384 2051
1286.0481 244.96153 2123
1099.6923 206.19231 1787
1126.25 207.92308 1802
1092.1731 198.57692 1721
1311.6538 234.92308 2036
1076.8846 190.03847 1647
868.47113 151.03847 1309
150 42 65300
1034.9615 174.92308 1516
152 42 65300
661.91345 108.80769 943
154 42 65300
155 42 65300
374.15384 59.076923 512
681.89423 106.26923 921
201.75 31.038462 269
270.42307 41.076923 356
0 43 65300
1 43 65300
2 43 65300
3 43 65300
4 43 65300
5 43 65300
6 43 65300
7 43 65300
8 43 65300
9 43 65300
10 43 65300
11 43 65300
12 43 65300
13 43 65300
14 43 65300
15 43 65300
16 43 65300
17 43 65300
18 43 65300
19 43 65300
20 43 65300
21 43 65300
22 43 65300
23 43 65300
24 43 65300
25 43 65300
26 43 65300
-318.50961 78.125 625
-511 127.75 1022
-502.64423 128.125 1025
-312.5 81.25 650
-357.60577 94.875 759
-521.53845 141.25 1130
33 43 65300
-241.5 68.25 546
-142.78847 41.25 330
-389.65384 115.125 921
-910.02887 275.125 2201
-846.46155 262 2096
-681.625 216.125 1729
-668.0769 217.125 1737
-768.375 256.125 2049
-603.61536 206.5 1652
43 43 65300
44 43 65300
-459.03845 170.5 1364
-666.9231 255 2040
-613.99036 241.875 1935
-591.38464 240.25 1922
-496.29807 208.125 1665
-312.11539 135.25 1082
-220.00961 98.625 789
-512.0769 237.75 1902
-417.46155 201 1608
-423.75 211.875 1695
-699.51923 363.75 2910
56 43 65300
-577.21155 326.25 2610
-484.21155 286.125 2289
59 43 65300
-247.5 160.875 1287
-222.33653 152.125 1217
-136.03847 98.25 786
-129.95192 99.375 795
-138.61539 112.625 901
-183.17308 158.75 1270
-154 143 1144
-152.625 152.625 1221
-167.53847 181.5 1452
-48.01923 56.75 454
-60.384617 78.5 628
-64.990387 93.875 751
-76.07692 123.625 989
-53.71154 99.75 798
-93.346153 202.25 1618
-53.990383 140.375 1123
-32.03846 104.125 833
-18.086538 78.375 627
-12.769231 83 664
-7.7980771 101.375 811
0 149.875 1199
13.634615 177.25 1418
16.692308 108.5 868
38.567307 167.125 1337
46.03846 149.625 1197
23.076923 60 480
53.826923 116.625 933
54.78846 101.75 814
132.53847 215.375 1723
108 156 1248
188.84616 245.5 1964
52.35577 61.875 495
106.03846 114.875 919
117.5 117.5 940
152.11539 141.25 1130
137.59616 119.25 954
253.69231 206.125 1649
97 43 65300
98 43 65300
99 43 65300
421.73077 274.125 2193
485.42307 300.5 2404
517.21155 305.625 2445
442.97116 250.375 2003
466.15384 252.5 2020
373.55768 194.25 1554
591 295.5 2364
638.91345 307.625 2461
641.30768 297.75 2382
558.80768 250.5 2004
605.76923 262.5 2100
495.40384 207.75 1662
627.38464 254.875 2039
640.3269 252.25 2018
615.59613 235.375 1883
115 43 65300
352.03845 127.125 1017
117 43 65300
118 43 65300
869.625 289.875 2319
120 43 65300
121 43 65300
122 43 65300
123 43 65300
124 43 65300
1060.5288 306.375 2451
1073.0385 303.25 2426
127 43 65300
128 43 65300
129 43 65300
769.71155 200.125 1601
1009.2115 257.25 2058
132 43 65300
133 43 65300
134 43 65300
864.13464 204.25 1634
954.69232 221.625 1773
1156.4423 263.75 2110
138 43 65300
139 43 65300
140 43 65300
141 43 65300
142 43 65300
1394.4807 287.75 2302
1236.3077 251.125 2009
1408.125 281.625 2253
1323.8077 260.75 2086
1356.1057 263.125 2105
1010.8461 193.25 1546
459.11539 86.5 692
556.63464 103.375 827
301.06732 55.125 441
152 43 65300
607.16345 108.125 865
389.92307 68.5 548
155 43 65300
177.57692 30.375 243
969.90387 163.75 1310
205.5 34.25 274
363.09616 59.75 478
0 44 65300
1 44 65300
2 44 65300
3 44 65300
4 44 65300
5 44 65300
6 44 65300
7 44 65300
8 44 65300
9 44 65300
10 44 65300
11 44 65300
12 44 65300
13 44 65300
14 44 65300
15 44 65300
16 44 65300
17 44 65300
18 44 65300
-341.95193 78.480766 583
20 44 65300
21 44 65300
22 44 65300
23 44 65300
24 44 65300
25 44 65300
26 44 65300
-93.259613 24.634615 183
28 44 65300
29 44 65300
-137.5 38.5 286
-277.03845 79.153847 588
32 44 65300
33 44 65300
-295.90384 90.057693 669
-423.17307 131.65384 978
-373.57693 118.86539 883
-496.56732 161.67308 1201
-740.25 246.75 1833
-684.38464 233.69231 1736
-673.0769 235.57692 1750
-832.875 298.98077 2221
-634.30768 233.69231 1736
43 44 65300
44 44 65300
-643.125 257.25 1911
-790.1731 325.36539 2417
-627 266 1976
-696 304.5 2262
-390.48077 176.34616 1310
50 44 65300
-395.40384 190.88461 1418
-339.5 169.75 1261
-459 238 1768
-570.25 307.05768 2281
-473.31732 265.05768 1969
56 44 65300
-428.81732 261.01923 1939
-389.01923 247.55769 1839
59 44 65300
60 44 65300
-176.11539 129.76923 964
-214.44231 166.78847 1239
-167.38461 137.84616 1024
-141.07692 123.44231 917
-132.69231 123.84615 920
-121.28846 121.28846 901
67 44 65300
-144.23077 168.26923 1250
69 44 65300
-124.90385 174.86539 1299
-159.14423 247.55769 1839
-95.07692 166.38461 1236
-67.644234 135.28847 1005
-52.615383 122.76923 912
-39.375 110.25 819
-31.038462 108.63461 807
-20.884615 97.46154 724
-16.5 115.5 858
-9.7115383 135.96153 1010
0 145.11539 1078
7.9326925 111.05769 825
16.115385 112.80769 838
9.3173075 43.48077 323
18.26923 63.942307 475
35.48077 99.346153 738
69.230766 161.53847 1200
33.317307 66.634613 495
19.153847 33.51923 249
89 44 65300
52.115383 72.96154 542
130.51923 166.11539 1234
26.192308 30.557692 227
97.125 104.59615 777
89.78846 89.78846 667
95 44 65300
97.692307 85.480766 635
97 44 65300
98 44 65300
273.85577 201.78847 1499
439.03845 307.32693 2283
474.92307 316.61539 2352
402.34616 256.03845 1902
467.07693 284.30768 2112
556.38464 324.55768 2411
423.79807 237.32692 1763
407.5 219.42308 1630
591.40387 306.65384 2278
513.69232 256.84616 1908
631.30768 304.76923 2264
590.48077 275.55768 2047
688.25964 310.82693 2309
112 44 65300
674.91345 286.32693 2127
602.84613 248.23077 1844
348.65384 139.46153 1036
135.69231 52.76923 392
117 44 65300
118 44 65300
119 44 65300
910.76923 318.76923 2368
121 44 65300
514.09613 171.36539 1273
123 44 65300
124 44 65300
1041.9231 324.15384 2408
1271.1923 386.88461 2874
127 44 65300
128 44 65300
759.02887 216.86539 1611
130 44 65300
865.03845 237.46153 1764
132 44 65300
133 44 65300
134 44 65300
135 44 65300
136 44 65300
1234.2693 303.15384 2252
138 44 65300
139 44 65300
140 44 65300
141 44 65300
142 44 65300
1128.5481 250.78847 1863
1076.3077 235.44231 1749
1348.125 290.36539 2157
1181.6538 250.65384 1862
759.5481 158.71153 1179
868.96155 178.90384 1329
149 44 65300
707.40387 141.48077 1051
429.41345 84.67308 629
152 44 65300
492.04807 94.365387 701
154 44 65300
155 44 65300
64.307693 11.846154 88
157 44 65300
692.25 124.25 923
239.27884 42.403847 315
0 45 65300
1 45 65300
2 45 65300
3 45 65300
4 45 65300
5 45 65300
6 45 65300
7 45 65300
8 45 65300
9 45 65300
10 45 65300
11 45 65300
12 45 65300
13 45 65300
14 45 65300
15 45 65300
16 45 65300
17 45 65300
18 45 65300
19 45 65300
-160.96153 40.240383 279
21 45 65300
22 45 65300
-48.23077 12.692307 88
24 45 65300
25 45 65300
26 45 65300
27 45 65300
28 45 65300
29 45 65300
-332.21155 99.66346 691
31 45 65300
-506.30768 158.22116 1097
-876.27887 279.66345 1939
-385.25 125.625 871
-557.30768 185.76923 1288
-272.46155 92.884613 644
-442.40384 154.32692 1070
-684.9231 244.61539 1696
-829.46155 303.46155 2104
-812.30768 304.61539 2112
-761.625 292.93268 2031
-716.15387 282.69232 1960
-511.59616 207.40384 1438
44 45 65300
-592.30768 253.84616 1760
-794.4231 350.48077 2430
47 45 65300
-478.46155 224.27884 1555
-500.17307 242.01923 1678
-360.57693 180.28847 1250
-235.625 121.875 845
-568.61536 304.61539 2112
-465.49039 258.60577 1793
-521.5 300.86539 2086
55 45 65300
56 45 65300
-401.17307 261.63461 1814
58 45 65300
-230.19231 164.42308 1140
-260.57693 195.43269 1355
-179.22116 141.49039 981
-174.98077 145.81731 1011
-162.64423 143.50961 995
-107.23077 100.52885 697
-159.51923 159.51923 1106
-239.21153 256.29807 1777
-173.375 200.04808 1387
-98.653847 123.31731 855
-130.51923 177.98077 1234
-133.46153 200.19231 1388
-40.846153 68.07692 472
-95.53846 179.13461 1242
-63.067307 135.14423 937
-66.634613 166.58653 1155
-67.884613 203.65384 1412
-35.5 133.125 923
-25.990385 129.95192 901
-18.115385 135.86539 942
-12.971154 194.56731 1349
0 151.29808 1049
4.8173075 72.259613 501
9.8461542 73.846153 512
36.432693 182.16347 1263
31.346153 117.54808 815
35.576923 106.73077 740
64.615387 161.53847 1120
87.230766 186.92308 1296
37.923077 71.105766 493
40.846153 68.07692 472
47.692307 71.53846 496
49.28846 67.21154 466
123.92308 154.90384 1074
258.875 298.70193 2071
49.134617 52.64423 365
87.115387 87.115387 604
96 45 65300
218.22116 192.54808 1335
98 45 65300
359.53845 283.84616 1968
471.15384 353.36539 2450
417.375 298.125 2067
485.90384 331.29807 2297
453.36539 295.67307 2050
662.30768 413.94232 2870
566.8269 340.09616 2358
587.75 339.08655 2351
541.2981 300.72116 2085
487.03845 260.91345 1809
581.39423 300.72116 2085
643.55768 321.77884 2231
455.75961 220.52884 1529
739.38464 346.58655 2403
760.90387 345.86539 2398
720.21155 317.74039 2203
451.63461 193.55769 1342
196.61539 81.92308 568
117 45 65300
763.28845 301.29807 2089
705.75 271.44232 1882
793.84613 297.69232 2064
506.58655 185.33653 1285
122 45 65300
123 45 65300
124 45 65300
1137.9807 379.32693 2630
966.88464 315.28845 2186
895.25964 285.72116 1981
805.84613 251.82692 1746
129 45 65300
130 45 65300
658.58655 193.70192 1343
132 45 65300
133 45 65300
134 45 65300
1001.6346 273.17307 1894
949.84613 254.42308 1764
1337.3077 351.92307 2440
138 45 65300
139 45 65300
140 45 65300
141 45 65300
142 45 65300
1284.2307 305.76923 2120
1242.4615 291.20193 2019
1351.25 311.82693 2162
1043.9423 237.25961 1645
778.23077 174.23077 1208
331.5 73.125 507
149 45 65300
150 45 65300
151 45 65300
152 45 65300
153 45 65300
154 45 65300
435.57693 87.115387 604
156 45 65300
734.46155 143.07692 992
158 45 65300
159 45 65300
0 46 65300
1 46 65300
2 46 65300
3 46 65300
4 46 65300
5 46 65300
6 46 65300
7 46 65300
8 46 65300
9 46 65300
10 46 65300
11 46 65300
12 46 65300
13 46 65300
14 46 65300
15 46 65300
16 46 65300
17 46 65300
18 46 65300
19 46 65300
-235.96153 62.923077 409
-132.75 36 234
22 46 65300
23 46 65300
24 46 65300
25 46 65300
26 46 65300
-243.59616 73.53846 478
28 46 65300
29 46 65300
30 46 65300
-474.92307 155.07692 1008
32 46 65300
-174.44231 59.384617 386
34 46 65300
-187.78847 66.769234 434
-572 208 1352
-642.93268 239.23077 1555
-743.48077 283.23077 1841
-736.4231 287.38461 1868
-748.0769 299.23077 1945
-823.125 337.69232 2195
-714.69232 300.92307 1956
43 46 65300
44 46 65300
45 46 65300
-698.30768 328.61539 2136
-667.61536 323.69232 2104
-606.76923 303.38461 1972
-688.85577 355.53845 2311
50 46 65300
-562.43268 310.30768 2017
-669.84613 382.76923 2488
-613.99036 363.84616 2365
-444 273.23077 1776
55 46 65300
56 46 65300
-598.44232 416.30768 2706
-454.17307 330.30768 2147
59 46 65300
60 46 65300
-223.79808 188.46153 1225
-159.40384 141.69231 921
-274.45193 258.30768 1679
-195.38461 195.38461 1270
-141.20192 150.61539 979
-183.07692 209.23077 1360
-64.75 79.692307 518
-84.46154 112.61539 732
-77.21154 112.30769 730
-83.846153 134.15384 872
-57.634617 102.46154 666
-79.769234 159.53847 1037
-51.826923 118.46154 770
-77.25 206 1339
-20.76923 66.46154 432
76 46 65300
77 46 65300
-16.192308 129.53847 842
-6.5480771 104.76923 681
0 108 702
10.365385 165.84616 1078
32.942307 263.53845 1713
29.221153 155.84616 1013
17.26923 69.07692 449
66.58654 213.07692 1385
24.865385 66.307693 431
67.375 154 1001
26.076923 52.153847 339
84.54808 150.30769 977
95.480766 152.76923 993
48.653847 70.769234 460
113.42308 151.23077 983
151.875 186.92308 1215
228.17308 260.76923 1695
95 46 65300
308.61539 308.61539 2006
97 46 65300
98 46 65300
99 46 65300
340.57693 272.46155 1771
450.28845 343.07693 2230
467.92307 340.30768 2212
663.68268 461.69232 3001
394.84616 263.23077 1711
573.55768 367.07693 2386
473.75 291.53845 1895
528.83655 313.38461 2037
650.73077 371.84616 2417
815.90387 450.15384 2926
624.51923 333.07693 2165
678.72113 350.30768 2277
625.23077 312.61539 2032
601.93268 291.84616 1897
652.86536 307.23077 1997
162.54808 74.307693 483
262.38461 116.61539 758
117 46 65300
118 46 65300
1032.75 423.69232 2754
828.46155 331.38461 2154
609.875 238 1547
122 46 65300
123 46 65300
124 46 65300
945.43268 336.15384 2185
1025.2693 356.61539 2318
1196.2404 407.23077 2647
523.38464 174.46153 1134
927.23077 302.76923 1968
611.53845 195.69231 1272
382.99039 120.15385 781
948.5 291.84616 1897
133 46 65300
134 46 65300
135 46 65300
1047.8462 299.38461 1946
137 46 65300
1080.8077 298.15384 1938
139 46 65300
140 46 65300
141 46 65300
142 46 65300
1067.9712 271.23077 1763
1126.1538 281.53845 1830
1087.5 267.69232 1740
1130.25 274 1781
551.46155 131.69231 856
481.23077 113.23077 736
149 46 65300
150 46 65300
434.875 98 637
248.53847 55.23077 359
153 46 65300
154 46 65300
155 46 65300
462.57693 97.384613 633
157 46 65300
158 46 65300
159 46 65300
0 47 65300
1 47 65300
2 47 65300
3 47 65300
4 47 65300
5 47 65300
6 47 65300
7 47 65300
8 47 65300
9 47 65300
10 47 65300
11 47 65300
12 47 65300
13 47 65300
14 47 65300
15 47 65300
16 47 65300
17 47 65300
18 47 65300
19 47 65300
20 47 65300
21 47 65300
22 47 65300
-486.14423 144.99039 887
24 47 65300
-462.21155 142.86539 874
26 47 65300
27 47 65300
28 47 65300
29 47 65300
-537.5 182.75 1118
31 47 65300
32 47 65300
-542.30768 196.15384 1200
34 47 65300
-427.06732 161.33653 987
36 47 65300
-486.23077 192.23077 1176
-406.26923 164.44231 1006
-738.39423 306.16345 1873
-725.76923 308.45193 1887
-780.375 340.16345 2081
-349.30768 156.26923 956
-696.9519 320.22116 1959
44 47 65300
45 47 65300
-671.1731 335.58655 2053
-525.14423 270.52884 1655
-705.23077 374.65384 2292
49 47 65300
-444.23077 251.73077 1540
-505.26923 296.19232 1812
-556.23077 337.71155 2066
-603.60577 380.04807 2325
54 47 65300
55 47 65300
56 47 65300
57 47 65300
-352.63461 272.49039 1667
59 47 65300
60 47 65300
-220.69231 197.46153 1208
-106.44231 100.52885 615
-169.50961 169.50961 1037
-114.92308 122.10577 747
-141.34616 160.19231 980
-146.19231 177.51923 1086
-167.75 219.36539 1342
-100.03846 141.72116 867
-85.778847 132.56731 811
-107.69231 183.07692 1120
-53.826923 101.67308 622
-80.07692 170.16347 1041
-52.23077 126.84615 776
-43.26923 122.59615 750
-34.903847 118.67308 726
-70.115387 297.99039 1823
-38.509617 218.22116 1335
-22 187 1144
-9.8653851 167.71153 1026
0 163.625 1001
4.9903846 84.83654 519
28.807692 244.86539 1498
56.076923 317.76923 1944
17.076923 72.57692 444
85 47 65300
41.48077 117.52885 719
133.875 325.125 1989
87 184.875 1131
45.51923 85.980766 526
162.5 276.25 1690
54.259617 83.855766 513
125.53846 177.84616 1088
155.25 203.01923 1242
191.96153 233.09616 1426
197.59616 223.94231 1370
154.76923 164.44231 1006
152.67308 152.67308 934
205.61539 194.19231 1188
99 47 65300
100 47 65300
394.55768 319.40384 1954
407.42307 314.82693 1926
576.10577 425.81732 2605
351.46155 248.95192 1523
543.75 369.75 2262
528.5 345.55768 2114
675.51923 425.32693 2602
631.34613 383.31732 2345
548.21155 321.36539 1966
564.80768 320.05768 1958
760.69232 417.15384 2552
677.84613 360.10577 2203
681.89423 351.27884 2149
777.4231 388.71155 2378
233.89423 113.60577 695
408.80768 193.04808 1181
117 47 65300
118 47 65300
694.875 302.89423 1853
964.61536 409.96155 2508
369 153 936
122 47 65300
123 47 65300
124 47 65300
1210.2404 457.20193 2797
1019.5192 376.77884 2305
1149.2404 415.68268 2543
702.46155 248.78847 1522
635.58655 220.50961 1349
289.90384 98.567307 603
700.26923 233.42308 1428
466 152.34616 932
484.13461 155.28847 950
134 47 65300
135 47 65300
1125.3846 341.63461 2090
1322.5096 394.43268 2413
138 47 65300
139 47 65300
140 47 65300
141 47 65300
142 47 65300
1084.9327 292.75961 1791
1292.9231 343.43268 2101
1123.75 293.90384 1798
962.0769 247.80769 1516
147 47 65300
674.11536 168.52884 1031
149 47 65300
150 47 65300
596.6731 142.86539 874
533.0769 125.86539 770
153 47 65300
154 47 65300
155 47 65300
156 47 65300
157 47 65300
158 47 65300
159 47 65300
0 48 65300
1 48 65300
2 48 65300
3 48 65300
4 48 65300
5 48 65300
6 48 65300
7 48 65300
8 48 65300
9 48 65300
10 48 65300
11 48 65300
12 48 65300
13 48 65300
14 48 65300
15 48 65300
16 48 65300
17 48 65300
18 48 65300
19 48 65300
20 48 65300
21 48 65300
22 48 65300
23 48 65300
24 48 65300
25 48 65300
26 48 65300
27 48 65300
-493 170.65384 986
-72.57692 25.615385 148
-96.153847 34.615383 200
-399.53845 146.76923 848
-176.30769 66.115387 382
-378.25961 144.86539 837
-264.05768 103.32692 597
-575.91345 230.36539 1331
-615.5769 251.82692 1455
-336.14423 140.71153 813
38 48 65300
-447.45193 196.44231 1135
-921.53845 414.69232 2396
-765.75 353.42307 2042
-707.01923 334.90384 1935
-603.38464 293.53845 1696
44 48 65300
-512.21155 263.42307 1522
-699.94232 370.55768 2141
-647.625 353.25 2041
-418.76923 235.55769 1361
49 48 65300
-536.8269 322.09616 1861
-529.25 328.5 1898
-526.34613 338.36539 1955
-513.77887 342.51923 1979
-449.5 311.19232 1798
55 48 65300
56 48 65300
-460.88461 360.69232 2084
-348.19232 284.88461 1646
59 48 65300
-131.73077 118.55769 685
-129.71153 122.88461 710
-254.94231 254.94231 1473
63 48 65300
-184 207 1196
-207.54808 249.05769 1439
66 48 65300
-125.25 173.42308 1002
-86.884613 130.32692 753
-69.490387 113.71154 657
-78.75 141.75 819
-39.46154 78.92308 456
-57.46154 129.28847 747
73 48 65300
-41.884617 125.65385 726
-50.865383 183.11539 1058
-52.884617 237.98077 1375
-27.951923 167.71153 969
78 48 65300
-6.7788463 122.01923 705
0 224.65384 1298
18.903847 340.26923 1966
19.846153 178.61539 1032
25.413462 152.48077 881
36.423077 163.90384 947
46.298077 166.67308 963
74.596153 223.78847 1293
66.29808 170.48077 985
