# .PCD v0.7 - Point Cloud Data file format
VERSION 0.7
FIELDS x y z
SIZE 4 4 4
TYPE F F F
COUNT 1 1 1
WIDTH 2630
HEIGHT 1
VIEWPOINT 0 0 0 1 0 0 0
POINTS 2630
DATA ascii
32 5 65300
33 5 65300
34 5 65300
-852.83655 -473.79807 1971
-912.15387 -518.26923 2156
37 5 65300
38 5 65300
-745.09613 -454.32693 1890
-851.53845 -532.21155 2214
-825.75 -529.3269 2202
-898.48077 -591.10577 2459
-886.93268 -599.27887 2493
-805.15387 -559.13464 2326
-785.14423 -560.81732 2333
46 5 65300
47 5 65300
48 5 65300
-842.36536 -679.3269 2826
50 5 65300
51 5 65300
52 5 65300
53 5 65300
54 5 65300
55 5 65300
-406.84616 -423.79807 1763
-560.40387 -609.13464 2534
-431.32693 -490.14423 2039
59 5 65300
-386.73077 -483.41345 2011
61 5 65300
62 5 65300
63 5 65300
-378.76923 -591.8269 2462
-263.22116 -438.70193 1825
-313.51923 -559.85577 2329
-235.125 -452.16345 1881
-219.69231 -457.69232 1904
-250.88461 -570.19232 2372
-192.78847 -481.97116 2005
-158.625 -440.625 1833
-171.69231 -536.53845 2232
-70.134613 -250.48077 1042
-131.94231 -549.75964 2287
-102.69231 -513.46155 2136
-86.846153 -542.78845 2258
-66.259613 -552.16345 2297
-39.5 -493.75 2054
-23.326923 -583.1731 2426
0 -560.81732 2333
20.884615 -522.11536 2172
37.923077 -474.03845 1972
83 5 65300
84 5 65300
85 5 65300
149.59616 -623.31732 2593
87 5 65300
88 5 65300
89 5 65300
90 5 65300
91 5 65300
303.92307 -633.1731 2634
264.125 -507.93268 2113
342.59616 -611.77887 2545
280.09616 -466.82693 1942
345.84616 -540.38464 2248
343.59616 -505.28845 2102
373.15384 -518.26923 2156
435.90384 -573.55768 2386
471.15384 -588.94232 2450
447.25961 -532.4519 2215
354.75 -403.125 1677
459.55768 -499.51923 2078
431.53845 -449.51923 1870
105 5 65300
649.5 -624.51923 2598
689.7981 -638.7019 2657
755.73077 -674.75964 2807
525.34613 -452.88461 1884
585.5769 -487.98077 2030
686.1731 -553.36536 2302
914.46155 -714.4231 2972
861.1731 -652.40387 2714
114 5 65300
115 5 65300
116 5 65300
999.71155 -675.48077 2810
830.51923 -546.39423 2273
928.5 -595.19232 2476
825 -515.625 2145
609.48077 -371.63461 1546
122 5 65300
123 5 65300
701.46155 -398.55768 1658
932.4519 -518.02887 2155
1002.2692 -544.71155 2266
1015.0192 -539.90387 2246
128 5 65300
918.75 -468.75 1950
782.21155 -391.10577 1627
841.00964 -412.25961 1715
1203 -578.36536 2406
133 5 65300
1253.4231 -580.28845 2414
135 5 65300
136 5 65300
137 5 65300
138 5 65300
139 5 65300
140 5 65300
141 5 65300
142 5 65300
143 5 65300
144 5 65300
145 5 65300
146 5 65300
147 5 65300
148 5 65300
149 5 65300
150 5 65300
1307.3557 -460.33655 1915
1008 -350 1456
899.16345 -307.93268 1281
1263.6923 -426.92307 1776
1046.3943 -348.79807 1451
1066.9231 -350.96155 1460
1116.5 -362.5 1508
1107 -354.80768 1476
159 5 65300
0 6 65300
1 6 65300
2 6 65300
3 6 65300
4 6 65300
5 6 65300
6 6 65300
7 6 65300
8 6 65300
-995.36536 -336.46155 1458
-1152.3077 -395.07693 1712
-1021.7308 -355.38461 1540
-1493.3846 -527.0769 2284
-1156.3943 -414.23077 1795
-1182.9231 -430.15384 1864
15 6 65300
16 6 65300
17 6 65300
18 6 65300
19 6 65300
20 6 65300
21 6 65300
22 6 65300
23 6 65300
24 6 65300
25 6 65300
26 6 65300
27 6 65300
28 6 65300
29 6 65300
30 6 65300
31 6 65300
32 6 65300
33 6 65300
34 6 65300
-939.80768 -501.23077 2172
-779.30768 -425.07693 1842
-837.25964 -467.30768 2025
38 6 65300
-891.35577 -521.76923 2261
40 6 65300
-955.875 -588.23077 2549
-753.78845 -476.07693 2063
-707.625 -459 1989
-822.46155 -548.30768 2376
-693.60577 -475.61539 2061
-672.15387 -474.46155 2056
47 6 65300
-521.23077 -390.92307 1694
-813.15387 -629.53845 2728
50 6 65300
51 6 65300
52 6 65300
53 6 65300
54 6 65300
55 6 65300
56 6 65300
57 6 65300
58 6 65300
59 6 65300
60 6 65300
61 6 65300
62 6 65300
63 6 65300
64 6 65300
65 6 65300
-220.23077 -377.53845 1636
-260.75 -481.38461 2086
-208.61539 -417.23077 1808
-246.23077 -537.23077 2328
-185.48077 -445.15384 1929
71 6 65300
-110.69231 -332.07693 1439
-138.25 -474 2054
-138.11539 -552.46155 2394
-92.307693 -443.07693 1920
-68.269234 -409.61539 1775
-59.625 -477 2067
-38.307693 -459.69232 1992
-18.971153 -455.30768 1973
0 -497.53845 2156
17.461538 -419.07693 1816
30.826923 -369.92307 1603
83 6 65300
84 6 65300
85 6 65300
86 6 65300
87 6 65300
88 6 65300
89 6 65300
90 6 65300
91 6 65300
228.46153 -456.92307 1980
208.125 -384.23077 1665
266.13461 -456.23077 1977
320.33655 -512.53845 2221
297.53845 -446.30768 1934
381.68268 -538.84613 2335
408.11539 -544.15387 2358
462.94232 -584.76923 2534
488.65384 -586.38464 2541
400.41345 -457.61539 1983
507.26923 -553.38464 2398
486.75961 -507.92307 2201
104 6 65300
105 6 65300
579.5 -534.9231 2318
664.09613 -590.30768 2558
684.9231 -587.0769 2544
658.63464 -545.0769 2362
682.5 -546 2366
727.00964 -562.84613 2439
906.15387 -679.61536 2945
914.16345 -664.84613 2881
114 6 65300
115 6 65300
116 6 65300
766.68268 -497.30768 2155
962.4231 -607.84613 2634
1005.75 -618.9231 2682
992.30768 -595.38464 2580
121 6 65300
122 6 65300
123 6 65300
124 6 65300
125 6 65300
924.86536 -482.53845 2091
1029.0288 -525.46155 2277
128 6 65300
834.41345 -408.69232 1771
937.01923 -449.76923 1949
795.89423 -374.53845 1623
132 6 65300
133 6 65300
134 6 65300
135 6 65300
136 6 65300
137 6 65300
138 6 65300
139 6 65300
140 6 65300
141 6 65300
142 6 65300
143 6 65300
144 6 65300
145 6 65300
146 6 65300
147 6 65300
148 6 65300
149 6 65300
150 6 65300
1346.9519 -455.30768 1973
1469.7693 -489.92307 2123
1632.6731 -536.76923 2326
1193.25 -387 1677
999.51923 -319.84616 1386
824.30768 -260.30768 1128
1375.6346 -428.76923 1858
950.25 -292.38461 1267
159 6 65300
0 7 65300
1 7 65300
2 7 65300
3 7 65300
4 7 65300
5 7 65300
6 7 65300
7 7 65300
8 7 65300
-1397.4712 -452.70193 2047
-1264.0385 -415.32693 1878
-976.61536 -325.53845 1472
-1405.1154 -475.25961 2149
-1019.8173 -350.08655 1583
-1369.5 -477.25 2158
-1102.5 -390.11539 1764
16 7 65300
17 7 65300
18 7 65300
19 7 65300
20 7 65530
21 7 65300
22 7 65300
23 7 65300
24 7 65300
25 7 65300
26 7 65300
27 7 65300
28 7 65300
29 7 65300
30 7 65300
31 7 65300
-845.53845 -405.15384 1832
33 7 65300
-889.9231 -444.96155 2012
-808.26923 -413.11539 1868
-709.9231 -371.09616 1678
37 7 65300
38 7 65300
-934.72113 -524.35577 2371
-818.0769 -470.39423 2127
-748.125 -441.20193 1995
-909.44232 -550.4519 2489
-772.375 -480.125 2171
-703.38464 -449.38461 2032
-773.02887 -507.99039 2297
-683.26923 -462.21155 2090
47 7 65300
48 7 65300
-668.58655 -496.04807 2243
-886.73077 -679.8269 3074
51 7 65300
52 7 65300
-593.22113 -505.33655 2285
-640.5 -566.59613 2562
-500.96155 -460.88461 2084
-588.46155 -563.94232 2550
57 7 65300
58 7 65300
59 7 65300
60 7 65300
61 7 65300
62 7 65300
63 7 65300
64 7 65300
-321.92307 -493.61539 2232
66 7 65300
67 7 65300
-297.80768 -570.7981 2581
-265.05768 -554.21155 2506
-167.30769 -384.80768 1740
-152.13461 -388.78845 1758
-188.38461 -541.60577 2449
-154.47116 -507.54807 2295
-122.42308 -469.28845 2122
-95.192307 -437.88461 1980
-75.384613 -433.46155 1960
-57.115383 -437.88461 1980
-41.884617 -481.67307 2178
-18.625 -428.375 1937
0 -420.19232 1900
20.548077 -472.60577 2137
41.326923 -475.25961 2149
65.682693 -503.56732 2277
84 7 65300
85 7 65300
86 7 65300
87 7 65300
88 7 65300
89 7 65300
90 7 65300
91 7 65300
92 7 65300
205.5 -363.57693 1644
247.01923 -405.81732 1835
280.38461 -429.92307 1944
364.61539 -524.13464 2370
293.41345 -396.97116 1795
337.15384 -430.80768 1948
433.16345 -524.35577 2371
476.53845 -548.01923 2478
335.59616 -367.55768 1662
556.34613 -581.63464 2630
103 7 65300
104 7 65300
574.27887 -528.33655 2389
628.5 -555.98077 2514
573.49036 -488.52884 2209
673.0769 -552.88464 2500
682.05768 -540.94232 2446
559.3269 -428.81732 1939
838.19232 -621.88464 2812
768 -552 2496
904.3269 -630.28845 2850
114 7 65300
115 7 65300
116 7 65300
681.65387 -423.73077 1916
969.36536 -586.72113 2653
918.75 -541.8269 2450
711.53845 -409.13461 1850
715.13464 -401.17307 1814
122 7 65300
123 7 65300
124 7 65300
843.31732 -431.02884 1949
824.90387 -412.45193 1865
127 7 65300
128 7 65300
933.8269 -438.32693 1982
762.01923 -350.52884 1585
1003.8173 -452.70193 2047
132 7 65300
133 7 65300
134 7 65300
135 7 65300
136 7 65300
137 7 65300
138 7 65300
139 7 65300
140 7 65300
141 7 65300
142 7 65300
143 7 65300
144 7 65300
145 7 65300
146 7 65300
147 7 65300
148 7 65300
807.43268 -269.14423 1217
150 7 65300
1419.3173 -459.77884 2079
1584 -506 2288
951.10577 -299.66345 1355
1250.8846 -388.78845 1758
955.52887 -293.02884 1325
986.53845 -298.55768 1350
157 7 65300
158 7 65300
159 7 65300
0 8 65300
1 8 65300
2 8 65300
3 8 65300
4 8 65300
5 8 65300
6 8 65300
7 8 65300
8 8 65300
-1086.1635 -336.55768 1591
-1027.7885 -323.01923 1527
-1324.9327 -422.44232 1997
-1129.1923 -365.32693 1727
-1303.9231 -428.15384 2024
-1366.3269 -455.44232 2153
-1143.75 -387.11539 1830
16 8 65300
17 8 65300
18 8 65300
19 8 65300
20 8 65300
21 8 65300
22 8 65300
23 8 65300
24 8 65300
25 8 65300
26 8 65300
27 8 65300
28 8 65300
29 8 65300
30 8 65300
-966.80768 -434.07693 2052
32 8 65300
-973.89423 -455.86539 2155
-714.76923 -341.84616 1616
-986.97113 -482.51923 2281
36 8 65300
37 8 65300
-751.96155 -393.88461 1862
-857.84613 -460.30768 2176
-837.30768 -460.51923 2177
-650.25 -366.80768 1734
-821.01923 -475.32693 2247
-728.61536 -433.23077 2048
-824.88464 -504.09616 2383
-866.58655 -544.71155 2575
-523.40387 -338.67307 1601
47 8 65300
48 8 65300
-938.94232 -666.34613 3150
50 8 65300
51 8 65300
52 8 65300
-616.3269 -502.19232 2374
-476.75 -403.40384 1907
-614.90387 -541.11536 2558
-556.38464 -510.01923 2411
-556.64423 -532.44232 2517
58 8 65300
59 8 65300
60 8 65300
61 8 65300
-339.05768 -414.40384 1959
-279.84616 -362.15384 1712
-303.84616 -417.78845 1975
-323.07693 -473.84616 2240
-325.63461 -511.71155 2419
-285.375 -482.94232 2283
-261.11539 -478.71155 2263
-300.59616 -601.19232 2842
-267.01923 -587.44232 2777
-122.79808 -300.17307 1419
-134.30769 -369.34616 1746
-115.63461 -363.42307 1718
-120.34615 -441.26923 2086
-79.182693 -348.40384 1647
-89.807693 -493.94232 2335
-56.076923 -411.23077 1944
-33.923077 -373.15384 1764
-19.307692 -424.76923 2008
0 -354.96155 1678
21.576923 -474.69232 2244
31.538462 -346.92307 1640
70.03846 -513.61536 2428
84 8 65300
85 8 65300
86 8 65300
87 8 65300
88 8 65300
89 8 65300
90 8 65300
91 8 65300
92 8 65300
257.875 -436.40384 2063
274.61539 -431.53845 2040
328.125 -481.25 2275
367.23077 -504.94232 2387
308.125 -398.75 1885
436.15384 -533.0769 2520
439.375 -508.75 2405
440.96155 -485.05768 2293
491.07693 -514.46155 2432
102 8 65300
103 8 65300
441.46155 -404.67307 1913
491.10577 -432.17307 2043
602 -509.38461 2408
601.78845 -490.34616 2318
603.0769 -473.84616 2240
716.91345 -543.86536 2571
769.3269 -564.1731 2667
814.94232 -578.34613 2734
900 -618.75 2925
878.625 -585.75 2769
755.19232 -488.65384 2310
115 8 65300
116 8 65300
1005.0481 -597.59613 2825
845.13464 -489.28845 2313
928.125 -523.55768 2475
865.38464 -475.96155 2250
121 8 65300
122 8 65300
123 8 65300
124 8 65300
784.03845 -383.30768 1812
661.25 -316.25 1495
833.7981 -390.28845 1845
128 8 65300
876.34613 -393.46155 1860
931.25 -409.75 1937
131 8 65300
1185.5 -501.55768 2371
133 8 65300
134 8 65300
135 8 65300
136 8 65300
137 8 65300
138 8 65300
139 8 65300
140 8 65300
141 8 65300
142 8 65300
143 8 65300
144 8 65300
145 8 65300
146 8 65300
147 8 65300
148 8 65300
149 8 65300
150 8 65300
1119.6154 -346.92307 1640
1193.5385 -364.69232 1724
760.18268 -229.09616 1083
1114.2693 -331.26923 1566
999.51923 -293.19232 1386
156 8 65300
157 8 65300
158 8 65300
159 8 65300
0 9 65300
1 9 65300
2 9 65300
3 9 65300
4 9 65300
5 9 65300
6 9 65300
7 9 65300
8 9 65300
-800.7981 -236.85577 1173
-1031.8269 -309.54807 1533
-829.99036 -252.60577 1251
-1171.0385 -361.64423 1791
-1005.6442 -315.20193 1561
-1366.9615 -434.94232 2154
-1338.125 -432.31732 2141
-920.61536 -302.07693 1496
17 9 65300
18 9 65300
19 9 65300
20 9 65300
21 9 65300
22 9 65300
23 9 65300
-284.84616 -106.81731 529
25 9 65300
26 9 65300
27 9 65300
28 9 65300
29 9 65300
30 9 65300
-873.99036 -374.56732 1855
32 9 65300
-894.35577 -399.60577 1979
-741.30768 -338.42307 1676
-837.25964 -390.72116 1935
-957.4231 -456.95193 2263
-760.76923 -371.53845 1840
38 9 65300
-890.96155 -456.34616 2260
-995.38464 -522.5769 2588
-756 -407.07693 2016
-795.80768 -439.78845 2178
-896.18268 -508.64423 2519
-764.65387 -446.04807 2209
-882.06732 -529.24036 2621
-462.26923 -285.51923 1414
47 9 65300
-711.38464 -466.84616 2312
49 9 65300
-848.0769 -593.65387 2940
51 9 65300
52 9 65300
-718.61536 -558.9231 2768
-515 -415.96155 2060
-628.125 -527.625 2613
-533.76923 -467.04807 2313
-404.04807 -368.91345 1827
-488.44232 -466.24039 2309
59 9 65300
60 9 65300
-396.625 -438.375 2171
-403.26923 -470.48077 2330
-277.06732 -342.25961 1695
-213.84616 -280.67307 1390
-253.70192 -355.18268 1759
-245.80769 -368.71155 1826
-269.375 -435.14423 2155
-311.30768 -544.78845 2698
-260.61539 -497.53845 2464
70 9 65300
71 9 65300
-173.92308 -456.54807 2261
-134.07692 -402.23077 1992
-87.692307 -306.92307 1520
-117.21154 -492.28845 2438
-91.153847 -478.55768 2370
-49.35577 -345.49039 1711
-34.23077 -359.42307 1780
-22.5 -472.5 2340
0 -454.73077 2252
26.923077 -565.38464 2800
40.75 -427.875 2119
50.826923 -355.78845 1762
84 9 65300
85 9 65300
86 9 65300
87 9 65300
88 9 65300
89 9 65300
90 9 65300
91 9 65300
92 9 65300
93 9 65300
94 9 65300
390.14423 -546.2019 2705
314.61539 -412.93268 2045
401.95193 -496.52884 2459
389.42307 -454.32693 2250
99 9 65300
100 9 65300
101 9 65300
102 9 65300
103 9 65300
556.84613 -487.24039 2413
565.625 -475.125 2353
568 -458.76923 2272
736.52887 -572.85577 2837
772.96155 -579.72113 2871
720.81732 -521.97113 2585
798.46155 -558.9231 2768
724.02887 -490.47116 2429
753.23077 -494.30768 2448
924.9519 -588.60577 2915
727.40387 -449.27884 2225
115 9 65300
116 9 65300
907.21155 -514.90387 2550
947.80768 -523.78845 2594
1003.875 -540.5481 2677
787.69232 -413.53845 2048
531.4231 -272.19232 1348
122 9 65300
123 9 65300
124 9 65300
728.22113 -339.83655 1683
855.86536 -390.72116 1935
127 9 65300
128 9 65300
724.16345 -310.35577 1537
913.94232 -383.85577 1901
131 9 65300
1226.5 -495.31732 2453
133 9 65300
134 9 65300
135 9 65300
136 9 65300
137 9 65300
138 9 65300
139 9 65300
140 9 65300
141 9 65300
142 9 65300
143 9 65300
144 9 65300
145 9 65300
146 9 65300
147 9 65300
148 9 65300
1338.2019 -407.27884 2017
1087.6923 -326.30768 1616
1153.75 -341.25 1690
1060.6154 -309.34616 1532
1064.8173 -306.31732 1517
1548.3077 -439.38461 2176
1310.3365 -366.89423 1817
156 9 65300
157 9 65300
158 9 65300
159 9 65300
0 10 65300
1 10 65300
2 10 65300
3 10 65300
4 10 65300
5 10 65300
6 10 65300
7 10 65300
8 10 65300
9 10 65300
10 10 65300
-1518.6635 -440.19232 2289
-1274.3462 -374.80768 1949
-1455.9615 -434.61539 2260
-1267.9615 -384.23077 1998
-1229.375 -378.26923 1967
-1200 -375 1950
17 10 65300
18 10 65300
19 10 65300
20 10 65300
21 10 65300
22 10 65300
23 10 65300
24 10 65300
25 10 65300
26 10 65300
27 10 65300
28 10 65300
29 10 65300
30 10 65300
31 10 65300
-922.61536 -384.42307 1999
-1033.0962 -439.61539 2286
-951.40387 -413.65384 2151
-798.31732 -354.80768 1845
-946.84613 -430.38461 2238
37 10 65300
38 10 65300
-774.66345 -377.88461 1965
-886.53845 -443.26923 2305
-894.75 -458.84616 2386
-1101.2693 -579.61536 3014
-833.9231 -450.76923 2344
-891 -495 2574
-762.59613 -435.76923 2266
46 10 65300
47 10 65300
48 10 65300
-708.8269 -457.30768 2378
50 10 65300
51 10 65300
-644.26923 -460.19232 2393
-684.60577 -507.11539 2637
-748.25 -575.5769 2993
-564.66345 -451.73077 2349
-599.53845 -499.61539 2598
-578.09613 -502.69232 2614
58 10 65300
59 10 65300
60 10 65300
-412.51923 -434.23077 2258
-366.23077 -406.92307 2116
-392.96155 -462.30768 2404
-330.92307 -413.65384 2151
-344.27884 -459.03845 2387
-322.53845 -460.76923 2396
-341.25 -525 2730
-272.19232 -453.65384 2359
-203.5 -370 1924
70 10 65300
-198.17308 -440.38461 2290
-213.76923 -534.4231 2779
-140.53847 -401.53845 2088
-114.28846 -380.96155 1981
-94.08654 -376.34616 1957
-79.730766 -398.65384 2073
-61.557693 -410.38461 2134
-38.28846 -382.88461 1991
-18.884615 -377.69232 1964
0 -385 2002
20.048077 -400.96155 2085
37.576923 -375.76923 1954
83 10 65300
84 10 65300
85 10 65300
86 10 65300
87 10 65300
88 10 65300
89 10 65300
90 10 65300
91 10 65300
92 10 65300
93 10 65300
94 10 65300
95 10 65300
96 10 65300
97 10 65300
424.21155 -471.34616 2451
99 10 65300
100 10 65300
101 10 65300
102 10 65300
103 10 65300
517.15387 -430.96155 2241
583.1731 -466.53845 2426
571.25 -439.42307 2285
570.375 -422.5 2197
617.0769 -440.76923 2292
639.11536 -440.76923 2292
647.88464 -431.92307 2246
811.96155 -523.84613 2724
787.0769 -491.92307 2558
912.25964 -552.88464 2875
114 10 65300
115 10 65300
116 10 65300
732.52887 -395.96155 2059
982.88464 -517.30768 2690
940.875 -482.5 2509
790.76923 -395.38461 2056
612.24036 -298.65384 1553
122 10 65300
123 10 65300
124 10 65300
855.86536 -380.38461 1978
805.88464 -350.38461 1822
127 10 65300
960.9231 -400.38461 2082
909.7981 -371.34616 1931
660.5769 -264.23077 1374
724.2981 -284.03845 1477
867.5 -333.65384 1735
133 10 65300
134 10 65300
135 10 65300
136 10 65300
137 10 65300
138 10 65300
139 10 65300
140 10 65300
141 10 65300
142 10 65300
143 10 65300
144 10 65300
145 10 65300
146 10 65300
147 10 65300
148 10 65300
1481.5096 -429.42307 2233
1244.5193 -355.57693 1849
1056.8077 -297.69232 1548
1338.2307 -371.73077 1933
1028.3173 -281.73077 1465
1196.0962 -323.26923 1681
155 10 65300
156 10 65300
157 10 65300
158 10 65300
159 10 65300
0 11 65300
1 11 65300
2 11 65300
3 11 65300
4 11 65300
5 11 65300
6 11 65300
7 11 65300
8 11 65300
9 11 65300
10 11 65300
-1178.3077 -324.46155 1776
-1099.7693 -307.28845 1682
-1181.5193 -335.05768 1834
-1188.6346 -342.18268 1873
-1180 -344.92307 1888
-1448 -429.875 2353
17 11 65300
18 11 65300
19 11 65300
20 11 65300
21 11 65300
22 11 65300
-108.51923 -36.173077 198
24 11 65300
25 11 65300
26 11 65300
27 11 65300
28 11 65300
29 11 65300
30 11 65300
-719.4519 -278.97116 1527
-1001.5385 -396.44232 2170
-886.22113 -358.25961 1961
-987.6731 -407.95193 2233
-911.25 -384.75 2106
-837.26923 -361.54807 1979
-832.71155 -367.94232 2014
38 11 65300
39 11 65300
40 11 65300
-592.875 -288.83655 1581
-841.48077 -420.74039 2303
-927.13464 -476.09616 2606
-696.46155 -367.57693 2012
-993.125 -539.125 2951
-574.0769 -320.80768 1756
47 11 65300
48 11 65300
-896.31732 -549.35577 3007
50 11 65300
51 11 65300
-550.03845 -373.24039 2043
-607.24036 -427.31732 2339
-645.5 -471.71155 2582
-647.83655 -492.35577 2695
-497.30768 -393.70193 2155
-574.55768 -474.63461 2598
-437.88461 -378.17307 2070
59 11 65300
60 11 65300
-411.97116 -411.97116 2255
-405 -427.5 2340
-358.30768 -400.46155 2192
-329.07693 -390.77884 2139
-329.27884 -417.08655 2283
-299.25 -406.125 2223
-292.125 -426.95193 2337
68 11 65300
-188.375 -325.375 1781
70 11 65300
-198.08653 -418.18268 2289
-148.76923 -353.32693 1934
-134.48077 -365.01923 1998
-114.23077 -361.73077 1980
-99.471153 -377.99039 2069
-70.769234 -336.15384 1840
-58.557693 -370.86539 2030
-42.03846 -399.36539 2186
-21.778847 -413.79807 2265
0 -321.72116 1761
16.548077 -314.41345 1721
31.76923 -301.80768 1652
83 11 65300
84 11 65300
85 11 65300
86 11 65300
87 11 65300
88 11 65300
89 11 65300
90 11 65300
91 11 65300
92 11 65300
93 11 65300
345.01923 -468.24039 2563
403.41345 -510.99039 2797
96 11 65300
462.59616 -517.01923 2830
513 -541.5 2964
433.34616 -433.34616 2372
100 11 65300
101 11 65300
102 11 65300
103 11 65300
104 11 65300
481.00961 -365.56732 2001
507.5 -370.86539 2030
647.22113 -455.45193 2493
645.61536 -438.09616 2398
699.90387 -458.55768 2510
852.40387 -539.85577 2955
870.08655 -533.27887 2919
708.30768 -420.55768 2302
777.08655 -447.41345 2449
451.80768 -252.48077 1382
115 11 65300
116 11 65300
909.7019 -467.14423 2557
833.80768 -416.90384 2282
953.25 -464.40384 2542
803.46155 -381.64423 2089
121 11 65300
122 11 65300
123 11 65300
124 11 65300
1001.25 -422.75 2314
728.48077 -300.89423 1647
968.9231 -391.69232 2144
1188 -470.25 2574
129 11 65300
966.34613 -367.21155 2010
759.11536 -282.80768 1548
132 11 65300
133 11 65300
134 11 65300
135 11 65300
136 11 65300
137 11 65300
138 11 65300
139 11 65300
140 11 65300
141 11 65300
142 11 65300
143 11 65300
144 11 65300
145 11 65300
146 11 65300
147 11 65300
1390.7307 -388.58655 2127
1239.3462 -341.26923 1868
1339.4231 -363.55768 1990
1206.3173 -322.81732 1767
1154.0769 -304.54807 1667
971.46155 -252.84616 1384
154 11 65300
155 11 65300
156 11 65300
157 11 65300
158 11 65300
159 11 65300
0 12 65300
1 12 65300
2 12 65300
3 12 65300
4 12 65300
5 12 65300
6 12 65300
7 12 65300
8 12 65300
9 12 65300
10 12 65300
-1089.4038 -284.19232 1642
-1156 -306 1768
-992.11536 -266.53845 1540
-1245.1154 -339.57693 1962
-1317.5 -364.84616 2108
-1345.8462 -378.51923 2187
-1437.4904 -410.71155 2373
18 12 65300
19 12 65300
20 12 65300
21 12 65300
22 12 65300
23 12 65300
24 12 65300
25 12 65300
26 12 65300
-124.34615 -42.23077 244
28 12 65300
-199.58653 -70.442307 407
30 12 65300
-579.99036 -213.05769 1231
32 12 65300
-847.80768 -324.69232 1876
-1012.8846 -396.34616 2290
-854.13464 -341.65384 1974
-619.80768 -253.55769 1465
37 12 65300
38 12 65300
-393.04807 -172.55769 997
-583.46155 -262.55768 1517
-511.5 -236.07692 1364
-696.4231 -329.88461 1906
43 12 65300
-558 -279 1612
-663.31732 -341.13461 1971
46 12 65300
47 12 65300
48 12 65300
-698.99036 -405.86539 2345
50 12 65300
-623.77887 -387.17307 2237
-517.73077 -332.82693 1923
-694.99036 -463.32693 2677
-584 -404.30768 2336
-555.52887 -399.98077 2311
-506.30768 -379.73077 2194
-513.2981 -401.71155 2321
58 12 65300
59 12 65300
-346.34616 -311.71155 1801
-485.77884 -460.21155 2659
-325.21155 -325.21155 1879
-406.03845 -429.92307 2484
-306.30768 -344.59616 1991
-307.64423 -369.17307 2133
-318.23077 -409.15384 2364
-245 -339.23077 1960
-266.65384 -399.98077 2311
-163.625 -267.75 1547
70 12 65300
71 12 65300
-177.61539 -399.63461 2309
-144.84616 -372.46155 2152
-145.90384 -437.71155 2529
-86.394234 -311.01923 1797
-95.5 -429.75 2483
-52.03846 -312.23077 1804
-33.26923 -299.42307 1730
-16.548077 -297.86539 1721
0 -443.42307 2562
20.259615 -364.67307 2107
37.846153 -340.61539 1968
83 12 65300
84 12 65300
85 12 65300
86 12 65300
87 12 65300
88 12 65300
89 12 65300
90 12 65300
91 12 65300
92 12 65300
93 12 65300
329.94232 -424.21155 2451
336.05768 -403.26923 2330
427.38461 -480.80768 2778
454.42307 -481.15384 2780
427.32693 -427.32693 2469
548.80768 -519.9231 3004
626.9231 -564.23077 3260
101 12 65300
102 12 65300
103 12 65300
104 12 65300
593.99036 -427.67307 2471
683.5 -473.19232 2734
703.81732 -469.21155 2711
707.80768 -455.01923 2629
787.46155 -488.76923 2824
749.71155 -449.82693 2599
850.71155 -493.96155 2854
868 -488.25 2821
113 12 65300
748.65387 -396.34616 2290
115 12 65300
116 12 65300
811.86536 -394.96155 2282
964.25 -456.75 2639
884.25 -408.11539 2358
831.9231 -374.36539 2163
581.88464 -255.46153 1476
122 12 65300
123 12 65300
124 12 65300
853.26923 -341.30768 1972
803.23077 -314.30768 1816
1036.7115 -397.03845 2294
1146.4615 -429.92307 2484
129 12 65300
130 12 65300
422.71155 -149.19231 862
132 12 65300
133 12 65300
134 12 65300
135 12 65300
136 12 65300
137 12 65300
138 12 65300
139 12 65300
140 12 65300
141 12 65300
142 12 65300
143 12 65300
144 12 65300
145 12 65300
146 12 65300
147 12 65300
1367.1923 -361.90384 2091
1269.2019 -331.09616 1913
1021.0577 -262.55768 1517
1243.1827 -315.17307 1821
1267.6154 -316.90384 1831
892.14423 -219.98077 1271
154 12 65300
155 12 65300
156 12 65300
157 12 65300
158 12 65300
159 12 65300
0 13 65300
1 13 65300
2 13 65300
3 13 65300
4 13 65300
5 13 65300
6 13 65300
7 13 65300
8 13 65300
9 13 65300
10 13 65300
11 13 65300
-905.5769 -226.39423 1385
-921.25 -233.75 1430
-1087.7307 -280.17307 1714
-1091.875 -285.56732 1747
-1271.3846 -337.71155 2066
-1135.8173 -306.49039 1875
18 13 65300
19 13 65300
20 13 65300
21 13 65300
22 13 65300
-204.98077 -61.134617 374
24 13 65300
-261.77884 -80.91346 495
26 13 65300
27 13 65300
-674 -220.34616 1348
29 13 65300
30 13 65300
31 13 65300
-498 -176.375 1079
-743.41345 -268.89423 1645
-839.05768 -310.08655 1897
-837.25964 -316.29807 1935
-716.26923 -276.74039 1693
37 13 65300
38 13 65300
-592.52887 -245.68269 1503
-513.84613 -218.38461 1336
-724.5 -315.80768 1932
-569.63464 -254.83653 1559
-585.24036 -268.89423 1645
-589.15387 -278.21155 1702
-748.125 -363.375 2223
46 13 65300
47 13 65300
-812.61536 -431.70193 2641
49 13 65300
50 13 65300
-731.69232 -428.92307 2624
-610.0769 -370.40384 2266
-766.125 -482.375 2951
-694.75 -454.25961 2779
-498.55768 -339.01923 2074
-630.9231 -446.90384 2734
57 13 65300
-263.57693 -203.67308 1246
-370.125 -299.625 1833
-337.5 -286.875 1755
61 13 65300
-331.44232 -313.02884 1915
63 13 65300
-338.92307 -360.10577 2203
-344.42307 -390.34616 2388
-258.59616 -314.00961 1921
-236.875 -309.75961 1895
-189.23077 -268.07693 1640
-270.98077 -418.78845 2562
70 13 65300
71 13 65300
72 13 65300
-137.17308 -333.13461 2038
-164.25 -465.375 2847
-112.88461 -383.80768 2348
-74.769234 -317.76923 1944
-42.75 -242.25 1482
-36.807693 -312.86539 1914
-19.346153 -328.88461 2012
0 -385.93268 2361
81 13 65300
82 13 65300
83 13 65300
84 13 65300
85 13 65300
86 13 65300
87 13 65300
88 13 65300
89 13 65300
90 13 65300
91 13 65300
92 13 65300
302.375 -395.41345 2419
318.90384 -387.24039 2369
95 13 65300
324.92307 -345.23077 2112
389.36539 -389.36539 2382
472.15384 -445.92307 2728
385.48077 -344.90384 2110
567.30768 -482.21155 2950
101 13 65300
102 13 65300
103 13 65300
104 13 65300
105 13 65300
664.25 -434.31732 2657
773.39423 -486.95193 2979
722.61536 -438.73077 2684
825.66345 -484.00961 2961
786.9231 -445.92307 2728
817.9231 -448.53845 2744
930.15387 -494.14423 3023
745.03845 -383.80768 2348
114 13 65300
115 13 65300
116 13 65300
973.02887 -447.06732 2735
874.36536 -391.16345 2393
1054.875 -459.81732 2813
1071.5385 -455.40384 2786
121 13 65300
122 13 65300
123 13 65300
124 13 65300
867.5481 -327.74039 2005
1027.4807 -379.72116 2323
872.21155 -315.48077 1930
1119.6923 -396.55768 2426
129 13 65300
824.51923 -280.33655 1715
131 13 65300
132 13 65300
133 13 65300
134 13 65300
135 13 65300
136 13 65300
137 13 65300
138 13 65300
139 13 65300
140 13 65300
141 13 65300
142 13 65300
143 13 65300
144 13 65300
145 13 65300
146 13 65300
840.0769 -213.15384 1304
1325.3462 -331.33655 2027
1341.5193 -330.51923 2022
1288.9423 -313.02884 1915
1236.3557 -296.02884 1811
945 -223.125 1365
153 13 65300
154 13 65300
155 13 65300
156 13 65300
157 13 65300
158 13 65300
159 13 65300
0 14 65300
1 14 65300
2 14 65300
3 14 65300
4 14 65300
5 14 65300
6 14 65300
7 14 65300
8 14 65300
9 14 65300
10 14 65300
11 14 65300
-1120.6923 -263.69232 1714
-1051.3846 -251.07692 1632
-1069.9615 -259.38461 1686
-1209.375 -297.69232 1935
-1396.3077 -349.07693 2269
-1149.75 -292 1898
-1139.8462 -294.15384 1912
19 14 65300
20 14 65300
21 14 65300
-46.846153 -12.923077 84
-77.278847 -21.692308 141
24 14 65300
25 14 65300
26 14 65300
27 14 65300
28 14 65300
29 14 65300
30 14 65300
31 14 65300
32 14 65300
-865.43268 -294.61539 1915
-962.46155 -334.76923 2176
-832.06732 -295.84616 1923
-695.11536 -252.76923 1643
37 14 65300
-558.11536 -212.61539 1382
39 14 65300
-636.15387 -254.46153 1654
41 14 65300
-781.9231 -329.23077 2140
-643.58655 -278.30768 1809
-661.5 -294 1911
-677.11536 -309.53845 2012
46 14 65300
47 14 65300
48 14 65300
49 14 65300
50 14 65300
51 14 65300
-597.15387 -341.23077 2218
-759.89423 -450.30768 2927
-546 -336 2184
-485.81732 -310.92307 2021
-586.38464 -390.92307 2541
-466.19232 -324.30768 2108
58 14 65300
59 14 65300
-437.69232 -350.15384 2276
-500.39423 -421.38461 2739
-334.38461 -297.23077 1932
-293.41345 -276.15384 1795
-291.53845 -291.53845 1895
-294.375 -314 2041
-259.26923 -296.30768 1926
67 14 65300
-180 -240 1560
69 14 65300
-227.78847 -364.46155 2369
71 14 65300
72 14 65300
73 14 65300
-137.01923 -365.38461 2375
-93.942307 -300.61539 1954
-79.769234 -319.07693 2074
-66.75 -356 2314
-34.73077 -277.84616 1806
-22.259615 -356.15384 2315
80 14 65300
81 14 65300
82 14 65300
83 14 65300
96.153847 -384.61539 2500
85 14 65300
86 14 65300
87 14 65300
88 14 65300
89 14 65300
90 14 65300
91 14 65300
92 14 65300
408.875 -503.23077 3271
366.55768 -418.92307 2723
431.53845 -460.30768 2992
96 14 65300
435.78845 -410.15384 2666
481.67307 -428.15384 2783
446.5 -376 2444
100 14 65300
101 14 65300
102 14 65300
103 14 65300
104 14 65300
105 14 65300
106 14 65300
697.58655 -413.38461 2687
814.69232 -465.53845 3026
814.78845 -449.53845 2922
835.38464 -445.53845 2896
947.58655 -489.07693 3179
695.69232 -347.84616 2261
113 14 65300
114 14 65300
115 14 65300
116 14 65300
989.39423 -427.84616 2781
957.30768 -403.07693 2620
119 14 65300
648.84613 -259.53845 1687
121 14 65300
122 14 65300
123 14 65300
867.73077 -315.53845 2051
878.36536 -312.30768 2030
896.11536 -311.69232 2026
999.65387 -340.30768 2212
128 14 65300
129 14 65300
130 14 65300
131 14 65300
132 14 65300
133 14 65300
134 14 65300
135 14 65300
136 14 65300
137 14 65300
138 14 65300
139 14 65300
140 14 65300
141 14 65300
142 14 65300
143 14 65300
144 14 65300
145 14 65300
146 14 65300
1151.8846 -275.07693 1788
1365.8846 -321.38461 2089
1208.8269 -280.30768 1822
1426.25 -326 2119
1220.6538 -275.07693 1788
976.84613 -217.07692 1411
153 14 65300
154 14 65300
155 14 65300
156 14 65300
157 14 65300
158 14 65300
159 14 65300
0 15 65300
1 15 65300
2 15 65300
3 15 65300
4 15 65300
5 15 65300
6 15 65300
7 15 65300
8 15 65300
9 15 65300
10 15 65300
11 15 65300
12 15 65300
-935.4231 -209.42308 1452
-1274.9423 -289.75961 2009
-1142.5 -263.65384 1828
-1118.7693 -262.21155 1818
-1249.7019 -297.54807 2063
-1301.4038 -314.85577 2183
19 15 65300
20 15 65300
21 15 65300
22 15 65300
23 15 65300
24 15 65300
25 15 65300
26 15 65300
27 15 65300
28 15 65300
29 15 65300
30 15 65300
31 15 65300
32 15 65300
-902.49036 -288.02884 1997
-821.80768 -267.98077 1858
-895.24036 -298.41345 2069
-759.84613 -259.03845 1796
-628.0481 -219.08653 1519
38 15 65300
39 15 65300
40 15 65300
41 15 65300
42 15 65300
-495.58655 -200.91347 1393
-610.61536 -254.42308 1764
-560.33655 -240.14423 1665
46 15 65300
47 15 65300
48 15 65300
49 15 65300
50 15 65300
51 15 65300
-683.5769 -366.20193 2539
53 15 65300
-689.5 -397.78845 2758
55 15 65300
56 15 65300
57 15 65300
58 15 65300
59 15 65300
60 15 65300
61 15 65300
-515.94232 -429.95193 2981
-349.64423 -308.50961 2139
-290.76923 -272.59616 1890
-288.75 -288.75 2002
66 15 65300
-195.125 -225.14423 1561
-196.73077 -245.91347 1705
-345.33655 -470.91345 3265
70 15 65300
71 15 65300
72 15 65300
73 15 65300
74 15 65300
75 15 65300
76 15 65300
77 15 65300
-35.384617 -265.38461 1840
79 15 65300
0 -357.25961 2477
17.221153 -258.31732 1791
82 15 65300
52.442307 -262.21155 1818
79.884613 -299.56732 2077
124.80769 -374.42307 2596
136.09616 -340.24039 2359
151.91347 -325.52884 2257
88 15 65300
89 15 65300
90 15 65300
91 15 65300
92 15 65300
289.5 -334.03845 2316
396.03845 -424.32693 2942
346.875 -346.875 2405
460.15384 -431.39423 2991
493.98077 -435.86539 3022
470.94232 -392.45193 2721
533.46155 -421.15384 2920
533.26923 -399.95193 2773
101 15 65300
102 15 65300
103 15 65300
104 15 65300
105 15 65300
106 15 65300
719.91345 -399.95193 2773
819.26923 -438.89423 3043
841.27887 -435.14423 3017
110 15 65300
710.61536 -343.84616 2384
974.76923 -456.92307 3168
820.24036 -372.83655 2585
114 15 65300
115 15 65300
116 15 65300
827.16345 -335.33655 2325
118 15 65300
119 15 65300
120 15 65300
121 15 65300
122 15 65300
123 15 65300
124 15 65300
928.55768 -309.51923 2146
785.53845 -256.15384 1776
972.53845 -310.38461 2152
937.38464 -292.93268 2031
129 15 65300
606.73077 -182.01923 1262
131 15 65300
132 15 65300
133 15 65300
134 15 65300
135 15 65300
136 15 65300
137 15 65300
138 15 65300
139 15 65300
140 15 65300
141 15 65300
142 15 65300
143 15 65300
144 15 65300
145 15 65300
931.61536 -211.73077 1468
1295.5481 -290.04807 2011
1356.7307 -299.27884 2075
1097.3654 -238.55769 1654
1200.7693 -257.30768 1784
1162.625 -245.625 1703
152 15 65300
153 15 65300
154 15 65300
155 15 65300
156 15 65300
157 15 65300
158 15 65300
159 15 65300
0 16 65300
1 16 65300
2 16 65300
3 16 65300
4 16 65300
5 16 65300
6 16 65300
7 16 65300
8 16 65300
9 16 65300
10 16 65300
11 16 65300
12 16 65300
-717.02887 -149.82692 1113
-1260.3462 -267.34616 1986
-1168.125 -251.59616 1869
-1147.0769 -250.92308 1864
-1032.2307 -229.38461 1704
-1045.6538 -236.11539 1754
-1350.7981 -310.01923 2303
20 16 65300
21 16 65300
22 16 65300
23 16 65300
24 16 65300
25 16 65300
26 16 65300
27 16 65300
28 16 65300
29 16 65300
30 16 65300
31 16 65300
32 16 65300
-833.34613 -248.23077 1844
-786.86536 -239.48077 1779
-1004.2789 -312.44232 2321
-940.9231 -299.38461 2224
37 16 65300
38 16 65300
-540.09613 -184.42308 1370
-503.46155 -176.21153 1309
-639 -229.38461 1704
-608 -224 1664
-408.77884 -154.67308 1149
-704.4231 -273.94232 2035
-724.56732 -289.82693 2153
46 16 65300
47 16 65300
48 16 65300
49 16 65300
50 16 65300
51 16 65300
52 16 65300
53 16 65300
54 16 65300
55 16 65300
56 16 65300
57 16 65300
58 16 65300
59 16 65300
60 16 65300
61 16 65300
62 16 65300
-314.33655 -258.86539 1923
-362.46155 -317.15384 2356
-296.97116 -277.17307 2059
-288.75 -288.75 2145
-285.375 -307.32693 2283
68 16 65300
69 16 65300
70 16 65300
71 16 65300
72 16 65300
73 16 65300
74 16 65300
75 16 65300
76 16 65300
77 16 65300
78 16 65300
-22.798077 -319.17307 2371
0 -284.71155 2115
25.971153 -363.59616 2701
43.596153 -305.17307 2267
50.740383 -236.78847 1759
76.307693 -267.07693 1984
84.134613 -235.57692 1750
122.88461 -286.73077 2130
138.72116 -277.44232 2061
183.84616 -321.73077 2390
157.93269 -245.67308 1825
90 16 65300
91 16 65300
92 16 65300
252 -271.38461 2016
329.13461 -329.13461 2445
400.24039 -373.55768 2775
429.84616 -376.11539 2794
534.68268 -440.32693 3271
450.86539 -350.67307 2605
445.76923 -328.46155 2440
100 16 65300
101 16 65300
102 16 65300
103 16 65300
104 16 65300
105 16 65300
106 16 65300
658.90387 -341.65384 2538
694.0769 -347.03845 2578
109 16 65300
110 16 65300
111 16 65300
724 -316.75 2353
113 16 65300
114 16 65300
115 16 65300
116 16 65300
775.22113 -293.32693 2179
118 16 65300
119 16 65300
120 16 65300
728.93268 -248.90384 1849
915.11536 -305.03845 2266
123 16 65300
124 16 65300
889.61536 -276.76923 2056
900.53845 -274.07693 2036
825.21155 -245.80769 1826
999.69232 -291.57693 2166
946.5481 -270.44232 2009
923.0769 -258.46155 1920
131 16 65300
132 16 65300
133 16 65300
134 16 65300
135 16 65300
136 16 65300
137 16 65300
138 16 65300
139 16 65300
140 16 65300
141 16 65300
142 16 65300
143 16 65300
144 16 65300
145 16 65300
1170.2307 -248.23077 1844
1393.4712 -291.17307 2163
1287.4231 -265.05768 1969
1305.6923 -264.92307 1968
1361.6346 -272.32693 2023
750.96155 -148.07692 1100
693 -134.75 1001
153 16 65300
154 16 65300
155 16 65300
156 16 65300
157 16 65300
158 16 65300
159 16 65300
0 17 65300
1 17 65300
2 17 65300
3 17 65300
4 17 65300
5 17 65300
6 17 65300
7 17 65300
8 17 65300
9 17 65300
10 17 65300
11 17 65300
12 17 65300
-996.625 -193.375 1547
-1417.0962 -279.125 2233
-1176.875 -235.375 1883
-1206.7693 -245.125 1961
-866.25 -178.75 1430
-1217.3462 -255.25 2042
-1273.9615 -271.5 2172
20 17 65300
21 17 65300
22 17 65300
23 17 65300
24 17 65300
-369.66345 -87.375 699
-221.71153 -53.375 427
27 17 65300
28 17 65300
29 17 65300
30 17 65300
31 17 65300
32 17 65300
-858.2019 -237.375 1899
-978.8269 -276.625 2213
-1060.9615 -306.5 2452
-792.84613 -234.25 1874
37 17 65300
38 17 65300
-573.21155 -181.75 1454
-935 -303.875 2431
-473.25 -157.75 1262
-682.53845 -233.5 1868
-723.99036 -254.375 2035
-720.69232 -260.25 2082
-619.56732 -230.125 1841
46 17 65300
47 17 65300
48 17 65300
49 17 65300
50 17 65300
51 17 65300
52 17 65300
53 17 65300
54 17 65300
55 17 65300
56 17 65300
57 17 65300
58 17 65300
59 17 65300
60 17 65300
61 17 65300
62 17 65300
63 17 65300
64 17 65300
-269.13461 -233.25 1866
-282.28845 -262.125 2097
67 17 65300
68 17 65300
69 17 65300
70 17 65300
71 17 65300
72 17 65300
73 17 65300
74 17 65300
75 17 65300
76 17 65300
77 17 65300
78 17 65300
79 17 65300
0 -172.125 1377
18.35577 -238.625 1909
39.846153 -259 2072
45.721153 -198.125 1585
69.5 -225.875 1807
89.903847 -233.75 1870
123.63461 -267.875 2143
142.82692 -265.25 2122
183 -297.375 2379
154.64423 -223.375 1787
224.03847 -291.25 2330
232.79808 -275.125 2201
92 17 65300
93 17 65300
264.78845 -245.875 1967
313.99039 -272.125 2177
350 -284.375 2275
97 17 65300
406.03845 -293.25 2346
508.61539 -348 2784
100 17 65300
101 17 65300
102 17 65300
103 17 65300
104 17 65300
105 17 65300
106 17 65300
107 17 65300
108 17 65300
109 17 65300
699.80768 -303.25 2426
460.82693 -193.25 1546
584.61536 -237.5 1900
654.28845 -257.75 2062
609.71155 -233.125 1865
115 17 65300
116 17 65300
789.09613 -277.25 2218
118 17 65300
119 17 65300
873.46155 -283.875 2271
737.60577 -233.875 1871
738.63464 -228.625 1829
123 17 65300
124 17 65300
967.5 -279.5 2236
950.0769 -268.5 2148
925.53845 -256 2048
988.15387 -267.625 2141
129 17 65300
798.0769 -207.5 1660
131 17 65300
132 17 65300
133 17 65300
134 17 65300
135 17 65300
136 17 65300
137 17 65300
138 17 65300
139 17 65300
140 17 65300
141 17 65300
142 17 65300
143 17 65300
144 17 65300
145 17 65300
1245.75 -245.375 1963
1362.5481 -264.375 2115
1335.8077 -255.375 2043
950.0769 -179 1432
1381.8269 -256.625 2053
974.88464 -178.5 1428
152 17 65300
153 17 65300
154 17 65300
155 17 65300
156 17 65300
157 17 65300
158 17 65300
159 17 65300
0 18 65300
1 18 65300
2 18 65300
3 18 65300
4 18 65300
5 18 65300
6 18 65300
7 18 65300
8 18 65300
9 18 65300
10 18 65300
11 18 65300
12 18 65300
13 18 65300
-1266.0577 -230.19231 1995
-1176.25 -217.15384 1882
-1025.2307 -192.23077 1666
-1129.7596 -215.19231 1865
-1032.5385 -199.84616 1732
-1323.8173 -260.42307 2257
-1135.9615 -227.19231 1969
21 18 65300
22 18 65300
23 18 65300
-136.23077 -29.192308 253
25 18 65530
-455.88461 -101.30769 878
27 18 65530
-478.5 -110.42308 957
29 18 65300
30 18 65300
31 18 65300
32 18 65300
-803.51923 -205.15384 1778
-864.71155 -225.57692 1955
-989.56732 -263.88461 2287
-835.15387 -227.76923 1974
37 18 65300
38 18 65300
39 18 65300
40 18 65300
-649.125 -199.73077 1731
-672.30768 -212.30769 1840
-635.75964 -206.19231 1787
-749.0769 -249.69231 2164
45 18 65300
-600.88464 -212.07692 1838
47 18 65300
48 18 65300
49 18 65300
50 18 65300
-732.80768 -303.23077 2628
52 18 65300
53 18 65300
-526.75 -243.11539 2107
55 18 65300
56 18 65300
57 18 65300
58 18 65300
59 18 65300
60 18 65300
61 18 65300
62 18 65300
63 18 65300
64 18 65300
65 18 65300
-240.42308 -206.07692 1786
-280.25 -258.69232 2242
68 18 65300
69 18 65300
70 18 65300
71 18 65300
-145 -217.5 1885
-149.89423 -256.96155 2227
-126.86539 -253.73077 2199
75 18 65300
76 18 65300
77 18 65300
78 18 65300
79 18 65300
80 18 65300
18.067308 -216.80769 1879
34.576923 -207.46153 1798
52.326923 -209.30769 1814
81.53846 -244.61539 2120
92.259613 -221.42308 1919
111.69231 -223.38461 1936
179.64423 -307.96155 2669
149.53847 -224.30769 1944
203.19231 -270.92307 2348
224.61539 -269.53845 2336
91 18 65300
92 18 65300
93 18 65300
334.92307 -287.07693 2488
432.69232 -346.15384 3000
96 18 65300
434.64423 -306.80768 2659
98 18 65300
99 18 65300
100 18 65300
101 18 65300
102 18 65300
103 18 65300
104 18 65300
105 18 65300
106 18 65300
107 18 65300
108 18 65300
498.85577 -206.42308 1789
557.59613 -223.03847 1933
666.2019 -257.88461 2235
664.9231 -249.34616 2161
600.02887 -218.19231 1891
673.13464 -237.57692 2059
115 18 65300
116 18 65300
875.19232 -283.84616 2460
118 18 65300
884.625 -272.19232 2359
450.38461 -135.11539 1171
495.94232 -145.15384 1258
413.94232 -118.26923 1025
123 18 65300
124 18 65300
670.24036 -178.73077 1549
864.26923 -225.46153 1954
1099.5288 -280.73077 2433
853.38464 -213.34616 1849
129 18 65300
879.80768 -211.15384 1830
727.24036 -171.11539 1483
439.5 -101.42308 879
133 18 65300
134 18 65300
135 18 65300
136 18 65300
137 18 65300
138 18 65300
139 18 65300
140 18 65300
141 18 65300
142 18 65300
143 18 65300
144 18 65300
1195.625 -220.73077 1913
1278.1154 -232.38461 2014
1269.1346 -227.30769 1970
1195.2307 -210.92308 1828
1223.4231 -212.76923 1844
1031.1538 -176.76923 1532
151 18 65300
152 18 65300
153 18 65300
154 18 65300
155 18 65300
156 18 65300
157 18 65300
158 18 65300
159 18 65300
0 19 65300
1 19 65300
2 19 65300
3 19 65300
4 19 65300
5 19 65300
6 19 65300
7 19 65300
8 19 65300
9 19 65300
10 19 65300
11 19 65300
12 19 65300
13 19 65300
-888.46155 -148.07692 1400
-1201.25 -203.28847 1922
-1296.6154 -222.85577 2107
-1284.2307 -224.23077 2120
-1272.7885 -225.81731 2135
-1193.6057 -215.24039 2035
-1243.8462 -228.03847 2156
21 19 65300
22 19 65300
23 19 65300
24 19 65300
25 19 65300
26 19 65300
-135.04808 -28.028847 265
28 19 65300
29 19 65300
30 19 65300
31 19 65300
32 19 65300
-938.19232 -219.57692 2076
-831.09613 -198.74039 1879
-1054.9038 -257.86539 2438
36 19 65300
37 19 65300
38 19 65300
39 19 65300
-643.0769 -176.84616 1672
-715.875 -201.91347 1909
-898.48077 -260.08655 2459
-863.4519 -256.70193 2427
-964.38464 -294.67307 2786
-763.94232 -240.09616 2270
46 19 65300
47 19 65300
48 19 65300
-600.02887 -212.91347 2013
50 19 65300
51 19 65300
-649.65387 -255.22116 2413
-603.08655 -245.70192 2323
-570.25 -241.25961 2281
-557.4519 -245.27884 2319
-554.0769 -253.95192 2401
57 19 65300
58 19 65300
59 19 65300
60 19 65300
61 19 65300
62 19 65300
63 19 65300
64 19 65300
65 19 65300
66 19 65300
67 19 65300
-249.57692 -228.77884 2163
-199.26923 -199.26923 1884
-167.69231 -184.46153 1744
-226.81731 -277.22116 2621
-144.30769 -198.42308 1876
-138.18269 -217.14423 2053
-100.90385 -184.99039 1749
75 19 65300
-62.692307 -172.40384 1630
77 19 65300
78 19 65300
79 19 65300
0 -150.72116 1425
19.173077 -210.90384 1994
27.596153 -151.77884 1435
74.79808 -274.25961 2593
78.807693 -216.72116 2049
130.33653 -286.74039 2711
90.346153 -165.63461 1566
182.13461 -286.21155 2706
152.53847 -209.74039 1983
205.61539 -251.30769 2376
234.80769 -258.28845 2442
345.01923 -345.01923 3262
92 19 65300
93 19 65300
94 19 65300
357.54807 -262.20193 2479
399.53845 -274.68268 2597
475.83655 -307.89423 2911
98 19 65300
99 19 65300
100 19 65300
101 19 65300
102 19 65300
103 19 65300
104 19 65300
105 19 65300
513.75 -217.35577 2055
582.31732 -237.24039 2243
515.30768 -202.44231 1914
586.69232 -222.53847 2104
590.19232 -216.40384 2046
619.10577 -219.68269 2077
707.69232 -243.26923 2300
605.4231 -201.80769 1908
736.23077 -238.19231 2252
751.15387 -236.07692 2232
116 19 65300
736.7981 -219.04808 2071
861.5769 -249.40384 2358
606.75 -171.13461 1618
379.23077 -104.28846 986
121 19 65530
122 19 65300
123 19 65300
124 19 65300
125 19 65300
896.11536 -214.28847 2026
972.08655 -227.50961 2151
901.84613 -206.67308 1954
129 19 65300
662.5 -145.75 1378
131 19 65300
167 -35.326923 334
161.03847 -33.423077 316
488.59616 -99.528847 941
135 19 65300
136 19 65300
276.23077 -53.307693 504
138 19 65300
139 19 65300
140 19 65300
309.10577 -55.740383 527
142 19 65300
143 19 65300
144 19 65300
1100 -186.15384 1760
1196.8846 -199.48077 1886
1197.625 -196.625 1859
1400.5385 -226.55769 2142
1171.6731 -186.78847 1766
580.19232 -91.17308 862
151 19 65300
152 19 65300
153 19 65300
154 19 65300
155 19 65300
156 19 65300
157 19 65300
158 19 65300
159 19 65300
0 20 65300
1 20 65300
2 20 65300
3 20 65300
4 20 65300
5 20 65300
6 20 65300
7 20 65300
8 20 65300
9 20 65300
10 20 65300
11 20 65300
12 20 65300
13 20 65300
14 20 65300
-1271.875 -195.67308 2035
-1105.2307 -172.69231 1796
-906.83655 -143.94231 1497
-1409.9038 -227.40384 2365
-1071.6057 -175.67308 1827
-1231.1538 -205.19231 2134
21 20 65300
22 20 65300
23 20 65300
24 20 65300
25 20 65300
26 20 65300
27 20 65300
28 20 65300
29 20 65300
30 20 65300
31 20 65300
-969.69232 -202.01923 2101
-822.0481 -174.90384 1819
-1064.1923 -231.34616 2406
-1004.7115 -223.26923 2322
-789.88464 -179.51923 1867
37 20 65300
38 20 65300
39 20 65300
40 20 65300
-740.625 -189.90384 1975
-848.78845 -223.36539 2323
-736.7981 -199.13461 2071
-751.84613 -208.84616 2172
-667.01923 -190.57692 1982
46 20 65300
47 20 65300
48 20 65300
49 20 65300
50 20 65300
-669.23077 -230.76923 2400
-639.69232 -228.46153 2376
-537.40387 -199.03847 2070
-568.5 -218.65384 2274
-653.36536 -261.34616 2718
-406.38461 -169.32692 1761
-483.44232 -210.19231 2186
58 20 65300
59 20 65300
60 20 65300
61 20 65300
62 20 65300
63 20 65300
64 20 65300
65 20 65300
66 20 65300
-341.5 -262.69232 2732
-183.34616 -152.78847 1589
-198.63461 -180.57692 1878
-206.25 -206.25 2145
-198.17308 -220.19231 2290
-136.23077 -170.28847 1771
-132.39423 -189.13461 1967
-141.28847 -235.48077 2449
-90.096153 -180.19231 1874
-91.96154 -229.90384 2391
-52.41346 -174.71153 1817
-46.03846 -230.19231 2394
79 20 65300
80 20 65300
16.336538 -163.36539 1699
41.75 -208.75 2171
62.71154 -209.03847 2174
79.53846 -198.84616 2068
98.221153 -196.44231 2043
143.07692 -238.46153 2480
112.74039 -161.05769 1675
174.76923 -218.46153 2272
235.55769 -261.73077 2722
251.05769 -251.05769 2611
287.90384 -261.73077 2722
92 20 65300
93 20 65300
401.42307 -286.73077 2982
324.51923 -216.34616 2250
355.07693 -221.92308 2308
364.51923 -214.42308 2230
384.92307 -213.84616 2224
99 20 65300
100 20 65300
101 20 65300
102 20 65300
103 20 65300
104 20 65300
105 20 65300
106 20 65300
587.50964 -217.59616 2263
548.96155 -196.05769 2039
555.18268 -191.44231 1991
651.34613 -217.11539 2258
591.98077 -190.96153 1986
475.07693 -148.46153 1544
569.25 -172.5 1794
520.46155 -153.07692 1592
742.74036 -212.21153 2207
865.73077 -240.48077 2501
842.10577 -227.59616 2367
1007.7308 -265.19232 2758
660.75 -169.42308 1762
594.61536 -148.65384 1546
511.31732 -124.71154 1297
122 20 65300
123 20 65300
124 20 65300
775.38464 -172.30769 1792
958.9231 -208.46153 2168
871.30768 -185.38461 1928
698.76923 -145.57692 1514
129 20 65300
565.86536 -113.17308 1177
131 20 65300
129 -24.807692 258
166.64423 -31.442308 327
134 20 65300
135 20 65300
29.615385 -5.2884617 55
372.14423 -65.28846 679
440.01923 -75.865387 789
139 20 65300
140 20 65300
141 20 65300
142 20 65300
143 20 65300
144 20 65300
1082.5 -166.53847 1732
1212.1154 -183.65384 1910
1258.1827 -187.78847 1953
1021.3077 -150.19231 1562
930.83655 -134.90384 1403
150 20 65300
151 20 65300
152 20 65300
153 20 65300
154 20 65300
155 20 65300
156 20 65300
157 20 65300
158 20 65300
159 20 65300
0 21 65300
1 21 65300
2 21 65300
3 21 65300
4 21 65300
5 21 65300
6 21 65300
7 21 65300
8 21 65300
9 21 65300
10 21 65300
11 21 65300
12 21 65300
13 21 65300
14 21 65300
-1034.375 -143.22116 1655
-1213.5385 -170.65384 1972
-1197 -171 1976
-1148.7885 -166.75961 1927
-1086.2693 -160.26923 1852
-1175.1923 -176.27884 2037
-1193.0481 -181.99039 2103
22 21 65300
23 21 65300
24 21 65300
25 21 65300
26 21 65300
27 21 65300
28 21 65300
29 21 65300
30 21 65300
31 21 65300
32 21 65300
-939.5481 -179.91347 2079
-992.09613 -194.10577 2243
-1070.4807 -214.09616 2474
-624.03845 -127.64423 1475
37 21 65300
38 21 65300
39 21 65300
40 21 65300
-699.75 -161.48077 1866
-859.75 -203.625 2353
-952.03845 -231.57692 2676
-787.5 -196.875 2275
-731.63464 -188.13461 2174
46 21 65300
47 21 65300
48 21 65300
49 21 65300
50 21 65300
-795.26923 -246.80769 2852
-552.73077 -177.66347 2053
-629.0481 -209.68269 2423
-491 -169.96153 1964
-564.4231 -203.19231 2348
-480.23077 -180.08653 2081
57 21 65300
-358.76923 -146.76923 1696
-304.5 -130.5 1508
60 21 65300
61 21 65300
62 21 65300
63 21 65300
64 21 65300
65 21 65300
66 21 65300
67 21 65300
-202.15384 -151.61539 1752
-271.29807 -221.97116 2565
-232.21153 -208.99039 2415
-190.99039 -190.99039 2207
-166.61539 -187.44231 2166
-126.06731 -162.08653 1873
-112.21154 -168.31731 1945
-109.90385 -197.82692 2286
-78.92308 -177.57692 2052
-50.10577 -150.31731 1737
-34.53846 -155.42308 1796
79 21 65300
80 21 65300
16.365385 -147.28847 1702
39.346153 -177.05769 2046
51.08654 -153.25961 1771
82.230766 -185.01923 2138
98.75 -177.75 2054
121.09615 -181.64423 2099
139.52884 -179.39423 2073
150.76923 -169.61539 1960
185.27884 -185.27884 2141
237.01923 -213.31731 2465
282.19232 -230.88461 2668
92 21 65300
93 21 65300
284.57693 -182.94231 2114
278.36539 -167.01923 1930
395.84616 -222.66347 2573
266.11539 -140.88461 1628
329.36539 -164.68269 1903
424.75961 -201.20192 2325
100 21 65300
101 21 65300
